# 3D point list with one line of data per point:
#   POINT3D_ID, X, Y, Z, R, G, B, ERROR, TRACK[] as (IMAGE_ID, POINT2D_IDX)
# Number of points: 359, mean track length: 5.1725117554858935
7836 1.315021512040651 1.9662235147261617 2.8365875286203868 168 173 169 2.7419226909592438 43 2669 40 2591 109 2155 41 1618 110 1320 61 2590
35595 4.5246043651549135 2.2691141658044702 -0.60461925400034389 90 92 75 1.9839222725094161 6 2911 12 2792 11 2786 1 1019 12 1072 11 1076 5 1341
7904 0.7015884249403187 0.52302997920778993 -1.7193174603017174 151 168 176 0.98938407503472225 44 1440 40 1352
7908 0.72506009621149659 0.51074489042106275 -1.7646017070699513 58 68 78 1.0100887854405141 44 2457 40 1375
7543 1.3558737524895312 1.1473332763629565 1.81482247126008 142 161 155 1.6968112733601164 58 1734 60 2086 42 1226 52 1280 113 95 114 53 115 46
7547 -0.35465252924003277 1.5628169162419043 2.5552378295994238 146 154 155 0.60455389148842942 43 2901 40 892 112 2012 61 2501 105 569
35529 4.5687807515330325 -9.4703565122190998 -5.7925213296345968 16 31 6 1.0258566553242472 11 1503 1 2043 6 805 5 1172
7556 1.0315123603232199 3.0495683259950259 2.1873739769970508 95 105 119 0.29482920124386736 43 1371 40 1004
7565 0.98512750227993784 1.4118215120645188 3.1475590427165612 0 0 0 3.4744309336274268 43 2492 108 1695
7577 0.73687159373435729 -1.0282343397535105 3.39815156497228 109 111 116 1.6760936413362344 108 1289 40 1090 111 1233 56 2741 105 424
7789 0.83290905212384425 0.48239089538289665 3.0293547193046648 121 122 114 1.1711310887804611 108 2388 40 2185 111 797 61 1804
37621 -0.35622869038015564 -1.6473375425153802 1.6689903840562856 15 19 5 1.2500579649638677 104 1319 100 1516 101 1318 102 1436 98 1418 97 970 99 972
7584 0.98167730849393997 -0.78605121906842967 3.8014894696057073 92 102 103 2.1496679160971106 108 1803 40 1117 41 1403 51 3022 64 1450 113 120 112 2835 42 241 35 548
7892 0.71354092144334746 0.51702816618688541 -1.744837260512667 83 93 105 1.0012853662901773 44 261 40 240
33533 0.68687608597691951 1.6119472873720266 -0.67649945923012134 94 93 91 0.34960729966416393 10 1435 9 2687 15 2911
7737 0.61861176027234965 -0.88998250037262905 3.2201339971212133 91 93 95 2.2559249017441023 56 1621 40 1932 44 436 111 2436 64 473 109 4
7596 -0.17623519321189826 -0.073303768947057452 2.6802383968047221 115 120 113 1.8994317913130554 43 1175 40 1166 112 1526 111 1881 42 2251 105 651 52 823 66 252
7900 0.74583916527109717 0.51727139960380286 -1.7421046681234904 109 117 134 0.37424453516929668 44 1050 40 1002
36551 10.285332366156524 -11.471474749646774 -7.9380135738532616 30 43 34 0.71397632232105945 3 1765 13 894 8 1497
7602 -0.9169688806082934 0.15481586110160417 2.6917605198371493 133 132 128 1.4734901493884132 56 0 40 1186
7603 1.5774350287758314 0.30884032824382301 2.8133562449916432 229 213 197 1.816311199562888 112 278 58 1611 59 1390 55 760 63 1868 57 1360 64 1537 54 1442 50 1480 37 1332 40 1188
7685 -0.34803354384086421 1.1258112072118696 2.5956173562992628 170 179 178 0.72641790583771004 56 1097 40 1713 45 1555 50 2303 113 276
36836 1.2662407284096138 1.6768109411564598 1.9479967915601846 104 102 105 0.35216844145344917 74 1440 69 1757 73 929
8719 -0.62392207686511192 0.73868078543932592 2.6482280286545468 160 164 165 2.3899884463087369 108 1633 111 2642 51 295 107 1281 106 914 55 797
7620 -0.30581043328294255 1.5955783172052904 1.499489097398607 217 221 222 1.4104033312053683 44 2741 57 2389 49 1980 42 2414 46 1741 47 1724 48 1061
7628 -1.5734054297030657 -2.8494287098399158 5.3796086752293455 10 26 20 0.035880970161233511 40 1396 49 1702
7845 -0.16308651910641109 2.2261729873474039 2.1519386647116012 179 195 202 2.0431476841528005 48 2183 40 2711
7638 0.43646458270408961 -1.1517236113387859 3.3041076006154331 43 37 15 2.2358058318903526 47 1439 56 2707 108 839 44 1836 49 1697 113 66 109 209 40 1084
7651 1.0295016557972028 -0.57047291627325614 2.9973328860905535 84 93 102 1.8561522136504731 56 2031 108 191 44 1936 41 563
7652 -0.43661493572218862 -0.71378547916455715 3.3490079231744927 169 206 235 0.28482732297464741 56 1387 40 1491
36798 0.85265478633404002 0.64895799161269019 1.7912782797967981 148 147 142 0.95150920482967971 74 566 69 369 76 344
7797 0.42317379783189685 0.64623511868288175 2.7253021642522883 16 17 19 1.6595136629537295 47 1577 40 2248 111 97 45 1250 63 696 61 1457
7660 -0.23492424828579828 -0.40344234502848908 3.0658352936516646 114 108 94 2.2025789451009108 40 1516 111 1793 45 214 41 988 42 233 64 842 41 986 35 2132 113 1155 105 1560 63 2404
7665 -0.16160586887113193 -0.095302775318311966 3.0757339312441836 151 149 133 2.0034442818283162 47 2639 48 1997 40 1548 62 472
7672 1.4041100889349538 0.36411556558216002 3.2737475638322175 64 62 50 0.88586308382174317 40 1593 110 134 45 2103 111 2896 108 2347
7753 1.2420785583725222 -0.47632338692326825 3.2158086090598146 144 146 145 1.471741348546421 108 1492 40 2002 111 1819 105 968 107 1766
7676 -0.047643592583923311 0.54698862713060725 2.4601205452511552 210 210 200 1.6147221985657234 56 2950 111 1609 107 61 64 1982
32871 0.31632725970157183 0.39734693141610516 2.5179993092360644 147 148 148 1.9604803081412971 134 118 133 78 135 75
7687 0.94798520372569439 1.1865134191474229 2.6038999733391637 39 54 35 1.5852768307469933 44 1290 40 1719 42 1549 111 412 45 1562 52 1256 41 1534 64 1645 35 1485 49 1817 54 2211 50 2316 113 926 109 872 61 2395 105 1389 56 1879 48 1730 114 852 115 854 37 1554
36657 0.49355506162366442 -1.5289568725962173 1.8691886678604657 120 118 111 1.3309286119536492 130 904 129 244 128 469
7802 1.1433219867930204 0.78704517911971061 2.9871231336718833 68 68 68 2.0120287894823785 48 183 53 789 55 1821 59 2539 40 2276 110 2440 42 772 60 2386 112 2557 41 1194 64 1592 49 1058 57 1410 54 764 50 798 35 1816 37 1495 56 1077 107 1653 105 2072 63 1989 57 1772
7813 -0.62246700219240014 1.0156135875995431 2.0677342341468465 0 0 0 1.5033428100269952 53 376 57 2241 58 952 108 722 44 920
7829 -0.79443165573477081 1.5464472419502391 2.9138425604385261 137 142 145 0.61659831050311509 48 749 40 2507
7834 1.0132523089038252 1.763298195531982 2.5827226327102784 162 168 169 1.8792459771830901 48 733 40 2574 45 700 41 2452 51 786 63 2610 113 2278 105 1655 61 782 38 2651 46 295
7839 -0.072792398416497581 1.8837142840652299 2.1166694208678281 176 187 189 1.7761904381631779 47 1007 40 2635 48 741 45 1647 62 932 51 525 63 2674
36351 -3.6573026676413547 1.294570912570971 8.1197245506550129 82 117 63 0.82990345501524931 4 270 16 386 13 367
7850 0.18594484075382509 1.645266906275427 0.4645784571383888 47 49 61 0.35495394468313302 44 2356 55 2585 42 2566 64 1776
7859 0.65915036103383984 -0.44146489890661389 0.47040324617898721 0 0 0 1.2556276202359027 46 1325 53 1538
36725 0.58248723708059291 -1.1319653350984251 1.8425294392667446 100 105 101 1.4269596322784259 24 1289 130 3044 129 1701
7870 0.093747214216904948 0.63026206317302425 2.8052547450960605 30 31 33 2.5685997855695373 43 818 46 1606 108 1610 40 50 48 2585 53 2706 111 1616 110 319 42 1841 48 2507 112 1611 112 337 45 80 45 1895 42 781 41 1284 64 183 51 888 35 1296 35 2629 50 2123 107 1264 113 1231 65 747 61 699
8463 -0.25330232647524936 -0.79237080540442328 3.4430386265884456 165 192 214 2.0289344787198131 40 1974 56 2799 111 1478 52 397 41 2749 109 774
7871 0.77476168325793959 1.190358120245496 2.5298131687014012 7 12 15 1.7481246412491169 40 391 111 708 110 2580 44 1480 108 154 109 654 52 2935
7874 -1.0918917950801441 0.89679213022015491 3.3060380821314976 109 122 116 0.49785850754943556 53 599 44 893 42 1888
7877 -0.59858918938691341 -0.50098996854261502 3.7537498639543747 14 13 6 2.0832684556223038 47 1200 47 2424 60 2652 113 128 55 651
36238 0.8986726763412396 -0.076302941347472938 2.9201327565213377 94 97 90 2.0178689761383204 1 2231 14 1334 4 2563
7891 0.68952454350371795 0.53092359019725111 -1.6583264659795436 30 31 33 0.18472026733857705 44 271 40 58
7893 1.1359717301157046 1.5016815974097508 2.3633123754529652 201 198 195 2.597598027214024 48 2938 40 331 52 90 41 866 64 1028 35 1534 54 597 113 372 48 3117 38 2599 39 2553 114 247
33305 2.4106074846731693 -2.213524164165491 1.287682560833125 53 64 32 1.5383527986759671 135 938 9 78
7901 0.7230541954701093 0.51095204157664997 -1.7628772055884856 55 68 77 1.0072933076273256 44 1063 40 1013
33160 11.581247388875155 3.5834618096476927 -3.5483882501030806 0 0 0 0.17644243620659189 10 3027 133 1160
7902 0.74769885849719309 0.55679315696256426 -1.6104748301392153 95 99 100 0.71627668360319741 44 1409 40 1323
7907 0.72226104190567442 0.50678748410138741 -1.7612240432804871 83 93 103 1.1318368769210303 44 2409 40 1360
37200 0.17964751125129619 -0.55823869921656544 1.62459490401173 131 133 128 2.5253088299906152 67 118 103 169 100 351
7909 0.73094463885215655 0.50746887980264699 -1.7740861288218153 56 66 75 1.5003892704749098 44 1473 40 1382
7916 0.74226376735938926 0.51424053061419461 -1.7514854156437809 86 98 112 0.00941532468284988 44 2428 40 1780
7923 0.73380260529365082 0.50687067196006241 -1.7758291350153745 97 106 121 1.4760304227435626 44 2482 40 2429
36789 1.0544732783062754 1.400115651210909 1.6558967801533686 164 160 159 0.56687459140080076 74 185 69 220 73 212 76 220
7934 0.045147328396639444 2.4014506190433371 2.3028630476233403 103 107 117 2.0883972336400469 40 2740 63 2750 47 37 61 202
37434 -0.53406707717599677 -4.6823904166335719 3.4562645256472115 23 59 84 0.75374898367874188 106 1267 103 2035 101 2453 102 2459
8527 -0.17698536512145494 1.7856596180752777 2.4079733221945112 35 43 46 1.2273178412153807 58 412 111 1806 110 1016 44 2707 112 1765 45 2614 52 1315 64 2814 63 2619 109 1306
7936 0.68044102185901001 0.52666948567104754 -1.6865078935574067 13 23 32 2.4863581450552403 44 590 40 2753
37828 0.23341473406448873 -2.1591833602348354 1.449013788022095 136 137 131 0.54228582228901778 100 641 101 714 102 975
8883 1.5148099244017432 0.53556938325870218 2.6978178318778787 34 41 49 1.340407094594765 40 1612 111 974
7944 0.74154697951038762 0.51680201174292617 -1.7450958764952771 93 105 121 0.19631740683910059 44 2412 40 2813
35935 0.96440223462892416 -2.5166255350622917 -3.5818982572354829 46 58 0 0.32755998098371375 5 1760 14 988 4 916 16 746 13 778
7946 0.73249055889468773 0.51425162916133504 -1.7502177308312667 28 39 56 0.27655607271274218 44 2639 40 2823
35116 -0.16635786516141499 -0.71403746426606041 3.2541054794692985 152 156 152 0.5835595550840561 6 180 11 299 2 196
8837 -1.1724792325306999 0.2377400902815538 3.3597837816214051 65 59 53 1.8524661882411795 47 1883 56 1723 58 2274 44 820 46 820 49 953 49 1514 54 1990
35552 1.1339861090364396 -5.8920921045061307 -6.4508263085726147 58 75 6 0.69364274034773032 6 2109 1 2342 5 2055 14 2167
7947 0.45520649984107076 2.7127320554576588 2.5750435196080832 88 96 106 0.91162535716305182 48 286 40 2888 45 2782
7951 0.7004249221542671 0.52385535061099431 -1.7162121616196688 69 81 91 0.90237725315414385 44 2384 40 2926
36137 -3.3925389076119199 1.3080641234395958 7.4751298270923643 102 127 72 1.5156714056450713 14 237 4 640 16 1142 13 3111
33739 0.666126258906653 -0.25781323669964368 2.6698190159833723 0 0 0 1.9365209935064107 132 389 133 64
36440 6.9566059037472581 -8.4819503965107774 -6.3394575935269648 37 60 42 0.6629072557165081 14 2012 16 2080 5 1907 13 2525
7959 0.33963133513856081 0.24394291020323394 2.7059108207288491 134 129 116 2.1429129178470641 46 1393 40 456 53 3108 56 397 110 2230 53 2202 42 811 112 2869 107 1581 44 1695
7962 -0.032341219090764213 0.90046060318961485 2.6754979963304737 23 23 24 2.0581204688668802 46 778 55 806 58 378 60 801 57 1430 108 521 44 902 40 677 111 398 110 2490 42 1179 45 555 52 905 62 844 64 723 51 1491 52 1771 63 677 35 1460 35 492 49 665 54 615 54 1832 50 446 113 2737 109 676 61 893 105 313 107 439 112 2618 65 837 37 719
34977 3.3916013006799184 -2.8942329538921254 -7.6706686045328691 177 189 105 0.98337728626288412 8 688 11 1162 15 697 1 1357 14 975 5 692
7964 0.097665724915298804 -0.46576840378057488 3.3627786187654727 157 151 143 1.8411481862340553 55 652 46 230 40 2019 48 1941 52 1241 51 1512 105 1253 111 1845
35063 3.2793660021293563 -3.3267648209631688 -6.9910790076110834 27 30 4 1.7092177699751956 3 2214 11 3047 2 1815 1 1693 12 3008 4 2372
7966 -1.3289995581523899 -1.223349912302758 3.7531564535703335 2 12 20 2.4881323998437019 48 42 46 2131 58 2037 60 1549 43 1881 48 512 46 1148 59 2131 57 2097 55 1183
7967 -0.35840555562529186 -0.8454131874334162 3.3364476518743227 159 187 214 2.0626749104408764 55 2206 43 1918 47 638 40 1954 51 681 60 1570 53 878 65 1147 48 2762
7968 0.61151459088330218 -0.17767657049120758 3.2530285087999986 86 88 85 2.3989560151384461 59 1940 57 746 53 563 56 2111 55 732 59 769 57 2368 110 2150 108 2182 49 2404 49 725 54 1926 50 746 50 1980 43 2033 47 2575 37 796 63 473 43 616
7969 -0.88859569121974991 0.5529634821435977 2.9943107776341193 131 135 134 1.9770838777343134 43 1657 40 1229 56 403 54 1474 35 1316 51 1843 108 2406 50 2113 41 39 64 746
36464 1.1513911104214234 -1.2031697538170898 2.0105932735446772 192 195 173 0.34871171695249759 4 924 14 977 16 2470 13 2922
7983 0.69638836670629478 0.53645519721167723 -1.6676727534516349 131 138 144 0.56154008791166632 44 411 40 360
36428 3.9819247143086511 -5.0333979411201035 -2.5742493344158417 39 56 19 0.11759857530548258 4 2162 14 1787 16 1806 13 2653
7995 -0.89387269849631235 2.154416362252066 2.177195551722674 42 41 46 1.5642100975602728 56 2281 40 960
37013 1.0266764400104342 1.6762375005061414 1.7243661563234753 67 66 73 0.21073702628381907 73 285 76 277 80 213
8000 0.54774696724532657 0.086981149140782837 -0.44765444819421252 111 95 76 0.94027075098927781 53 1579 40 1104
8001 1.6853959433912784 -0.59993447737932348 3.2171464655924811 92 91 91 2.0746577016012506 108 2647 52 2208 58 2115 110 1527
36912 0.50383536725350897 -1.7728288289345855 1.7866163485733049 164 157 138 1.4337738671574598 131 725 133 967 129 376 128 246 19 643 127 359 125 168
35538 8.4359859054772919 -8.364743852453504 -6.3302091458753456 195 231 252 1.8092901668387373 15 1916 1 2187 5 529 14 1105 4 1254 16 853 13 939
8005 -0.4252418132974416 -0.18359493363574153 2.9213578819032904 167 162 156 1.7704757937197513 56 949 108 632 40 1162 54 1071 49 724 50 745 111 1873
8006 1.4496865095860276 0.024663337289163464 3.5837635398437375 163 166 166 1.6890591117704006 108 2289 40 1177 61 819
35999 7.0825504302834679 -8.7960245932824801 -5.4802110375789601 135 152 130 0.90934302497254071 11 1531 14 1964 2 2215 6 1543
8010 0.70927202985580695 0.50361391320745452 -1.6747406935646731 178 183 186 0.30430980627400483 44 1378 40 1274
35180 5.8080565713562091 -5.4700685456006966 -3.2468823348761848 44 64 27 1.0335579035475271 6 523 11 517 2 794 12 525 7 1146 5 1638 14 1515
8901 -0.877608406693277 -1.5604042009559949 3.7478109165212992 1 7 6 2.2067946185652447 40 1076 64 2435
8013 -0.46322684354111116 -1.6310408911686183 3.4416634625227931 119 126 119 1.6822514399486459 111 2357 105 62 56 1326 66 1955
8032 0.73012847145287163 0.50957210065784919 -1.7654426974613087 50 58 69 0.65064397688047948 44 1465 40 2096
25317 1.1646713958560078 -0.29813998402902597 1.8582035842788651 24 38 41 2.1797150556811689 37 2265 115 1359
8042 0.77215737026410103 0.53743039175676144 -1.6869099645773837 32 35 34 1.6048583887843861 44 2382 40 2459
36097 -3.2840592178672932 1.3656529038090635 7.1310833357470447 60 94 32 0.86462162550997934 14 691 4 161 16 127
24734 0.56844931678927513 1.5172616575899214 0.21295674146131088 73 86 102 1.2978123714279854 38 2900 39 1268 34 1011 36 1049
36528 4.9861302711016338 -2.2978292115767163 1.2234251247090759 34 48 19 0.73035769029471076 4 340 14 301 13 257 5 208 1 174 2 215
8047 0.85918770414440537 2.7556316362915769 3.116528876427092 153 154 158 1.572499765212801 40 2734 47 1041 60 1062 41 942 42 2525
36397 -3.6223744720871922 1.2716435266879371 6.8484223166661122 127 156 108 0.2443308893293846 4 812 16 1136 13 1210
35023 1.0298117859032114 -5.7036121840371941 -2.8749026028246636 31 40 3 0.65860884112242879 6 1986 12 2633 11 2245 7 1352 2 772
8054 0.70871583616820466 0.34643264052180645 -1.5696585754920722 110 100 83 1.1372192503709151 44 1801 40 2844
36407 3.5954033389379831 -1.9160722950353137 -9.7377910361519966 107 124 9 0.25895614419722718 4 1288 14 1316 16 1334
8056 -0.71374561174900619 0.39083745067624664 3.0424035886433591 114 121 116 1.9949833418597045 55 1751 43 2149 56 2209 46 1959 57 1707 60 1695 108 1222 47 1911 45 798 35 1742 111 2554 54 737 109 2558 61 1428
34001 0.43374069657522313 -0.24735315195877122 1.6944133830753207 188 183 156 1.7285998215958278 15 306 3 1007 8 993
33190 -0.21605830389057806 0.51474216074629708 2.4303240943341633 78 69 54 0.28299432077655173 133 1180 135 1167
8063 0.041140152438158113 0.099888876482453287 2.6757952899333297 101 102 87 1.1649940657137887 48 2034 40 185 56 904 44 1205 110 1696 45 1418 62 2123
8064 0.49636404347092744 3.0143785854723086 4.5879799475074661 132 135 133 2.354439311968147 56 1187 48 1094 46 1022 47 1026 43 1355 56 2327 48 2174 48 683 47 684 62 949 62 2633 43 994 46 708
8067 1.4151810225480306 -0.47310382374392113 2.4089069157679326 89 104 111 2.2542243919935148 55 1094 58 669 59 1115 57 1092 60 2698 59 2204 42 1350 60 596 52 480 52 1664 41 1067 51 2762 110 1526 49 755 54 1043 50 718 49 2477 58 2116 105 1464
8069 1.4545414365111338 1.0029497535804746 2.7830592424956722 168 171 170 1.9350698613213142 47 2154 59 2623 60 1995 53 992 44 2333 108 2533 110 2502 62 1632 49 1775 46 2538 50 2279 105 847
8714 -0.04090785004122173 0.63486048887234869 3.009684436878302 1 2 4 1.3973586858998031 56 243 110 415 41 1273 111 2601
36043 12.348433465957239 -1.6512945182893901 -7.037100486332438 59 68 21 0.50911048243709178 1 1766 2 1882 7 1487 14 2951 6 2416 11 2329 8 3215 12 2335 4 2455
8070 -0.63731174294108106 -0.13521976294720719 3.1273809993255086 90 92 88 1.6829736989725466 56 213 40 739 59 693 43 479 112 2820 50 1986 44 1663 55 642 53 1678 41 113
33321 0.81910878364129547 0.23563511858618505 3.0290154317460227 196 199 188 1.811835838394299 135 485 9 194 15 142
33112 0.91626853988852908 -0.47490480864832862 2.5487493385265685 24 28 14 1.9426981332972109 10 527 132 175 133 220 135 178 9 794 15 479 3 187 7 1476 6 129 11 294 1 268 13 753
8073 0.64225668614093756 0.071597097977128724 2.2378459827855495 0 0 0 1.145618895969218 40 734 56 2140 43 31 110 732
35918 -1.4305744134705296 1.0220648370349175 5.6849956176396548 183 179 178 1.3696400535447881 2 731 5 753 14 719 11 333 4 300
8083 0.82199914981941602 -3.9497752936352737 6.5566327287773705 211 197 171 0.4580956676139164 53 70 51 25
8092 0.24346891949465899 -0.90091210754095008 1.8328911545221778 16 35 49 1.1484863826426384 40 408 48 1486 108 19 64 2441
36377 5.8219925450323089 -2.2239530152934219 1.2301512997627722 123 129 93 0.38896558065730807 4 765 14 603 16 767 13 790
8098 0.21111315546870443 -2.5535964153748587 2.6301984328408268 99 101 100 1.7266047344178712 53 24 111 75 110 1040 58 1326 109 976
8101 0.33831760408086575 -0.53414064448980803 3.239044384271859 88 97 102 2.2548704634447758 40 1505 111 82 53 237 57 674 59 714 105 442 44 1155 63 344 55 22 49 2465 50 1934
36463 4.0392515111854284 -2.9698675966550314 -6.3628344253439755 169 187 79 1.0495546249778143 4 742 14 3031 16 2452 13 780
8112 0.54640155497876775 -2.7923307860466662 3.1246459517766856 123 132 147 1.0643364493348642 53 101 111 115
8118 -0.24284763514826285 -0.8045504715654086 2.8834913188889257 153 195 223 1.5295360254553856 40 427 110 107
8120 -0.57567216457061055 -0.088900020609422134 2.1168616875233321 0 0 0 0.41520476808347562 44 106 56 159 43 240
36469 -0.1357118786040673 -0.52884317346974608 2.1169615024975057 196 196 188 0.30882672760341712 6 1171 11 1203 16 2587
8126 -0.15260005063675791 1.6047705704147879 2.608390094852739 119 133 135 2.3953690338087266 55 195 59 272 111 174 57 255 35 1542 49 1907 57 2336 54 2294 50 2394 49 1184 50 2388
8133 -0.2192202254891906 -2.0406245797375595 4.0320424213155981 0 0 0 1.8055168636187013 44 415 47 176
8778 -0.21048616560352604 0.31502211593821255 2.9530581330557566 173 162 148 2.1858020376708844 47 1537 58 873 60 862 44 114 40 318 111 241 56 2192 44 1487 43 768 108 1573 112 163 45 2856 62 17 48 25 50 433 65 810 47 1538 66 223
35397 0.62266156550234153 -1.9372006277017111 2.254572719755561 160 164 150 1.135545341836981 2 846 6 727 1 341 14 604 4 763
8146 1.5627779825549102 0.33276902364110855 3.2495734349260248 95 99 103 2.0053351791748391 108 481 111 243
36497 -3.0662556119249649 0.99431982230058846 5.5292361521397178 107 107 109 0.44826985147455739 4 2911 14 3182 16 3353
8154 -0.35275645829071967 -0.70415840556230536 1.6801277072746668 0 17 38 1.7730681547247109 40 1891 48 1127 110 1985
36944 0.95205021576880255 1.6434970629325523 2.0046543323551589 89 87 82 1.9557533461616761 69 929 73 610 76 284
8165 -0.12285161502106048 -4.5034714765310477 5.6906723447294167 99 99 91 2.7553992016189803 48 613 111 295
8768 -0.29193775762143132 1.260522376246991 2.632246854561699 129 134 139 0.92915231310364677 108 1876 111 2872
36515 -0.98056023924639835 1.1099825564243957 5.3328796770223157 163 163 161 1.8707605613310527 5 2804 16 2958 13 2417
8180 -0.68633928442489345 1.0680116887649338 2.7118825374195414 45 55 54 2.0595612979158955 110 933 47 913 48 994 112 2671 43 2316 45 2428 41 2526 58 1709 63 1562 63 1568 53 374 55 824 59 1476 111 406 35 1181
36315 -0.16604573899931527 1.3414716341449129 2.6185669033009722 152 151 150 1.1905070013592094 4 56 16 53 13 51
33593 8.4822498441452634 -4.5751827135331959 0.43701866154528801 13 21 8 1.0697204305907124 131 104 130 225 23 111
8189 1.311890420518256 1.4708402807179533 2.3175526837264719 112 124 136 1.4476097464218609 44 1498 56 3153 111 442 41 1567 37 870 38 953 39 939 112 2004 114 901 118 601 109 2065
32936 0.70467788699980305 0.32478511575927699 2.8163944061459891 222 208 204 0.67812359980770232 134 839 133 772 135 1981
8190 0.84228336648016655 1.5434878168189119 2.6673498354832113 38 49 50 2.0419801228607248 47 2924 111 445 62 1684
37690 -0.071454416429842516 -3.6095028840550683 2.657964188495614 136 169 221 1.6065051071986303 104 177 100 408
8271 0.85983264289411554 1.3130708499708659 2.5653774474602411 25 32 40 2.6388325667992363 47 70 111 719
8193 -0.55348052353814936 -0.5696069952433388 2.4456265330465827 126 117 112 0.65540991594929632 46 1500 52 1049
9136 0.83963582736788822 -2.3838741627526363 3.0006039436129193 198 199 194 1.4659987187138008 58 559 60 1447 111 27 110 561
8194 -0.039213799176946347 0.81382638056902801 2.7860990122663654 4 10 15 1.5541063868642402 40 682 108 512 63 829 61 880
11709 1.1437253379494035 -0.17564294332634139 2.9700870951117948 123 123 123 2.6487808553464705 53 1323 45 2401
8197 0.1535039295974534 -3.0317086327811245 2.6589142364551712 107 164 243 2.1298543373986907 53 187 111 478 110 437
12214 0.48848630750610184 -0.80641427658473119 1.9650594097227145 121 100 76 0.5879704389349768 55 2160 52 2117 51 2853
8200 0.035214108809968662 -2.6043107175207099 2.6019608050804672 108 161 234 2.4664365768942544 53 295 111 490 51 1010 109 428
11707 0.42788922210948027 1.6449097512217143 -0.063964905509754852 38 47 62 0.065019232170395957 42 2617 45 2391
8203 1.0578626616460975 -1.9453504087135947 2.0841699763013573 206 191 172 2.0757951880291969 108 400 111 494
10170 1.6763939722344205 1.8911755104835863 3.0357900486804326 69 69 75 1.2593662487222204 40 2568 58 2862 42 1612 64 2801 63 2614
8204 1.1608327311308591 -1.8585939618787513 2.1787374911170758 190 175 156 0.64382279624422534 108 405 111 498
8205 -0.10210692155403778 -2.3537595598398688 3.094716491390376 98 111 129 0.78864877115563237 56 556 111 504
9148 0.74642223761530369 -1.6589730092700516 2.927375526130811 75 76 68 2.0229887672813369 60 1003 110 582 44 1502
37503 1.0227024348743718 -1.18302311465957 2.8245957782808606 9 47 68 0.10279141128109512 104 1860 103 1869
9088 0.63672949610952612 -3.0160218190762467 3.1844714847045288 108 109 111 0.79159395487619666 111 110 110 442
8211 -2.1592996687117347 -2.1489573049075914 5.3900770689555495 7 18 16 1.18044962059792 58 594 111 525
10114 1.2381981478815778 1.3609499537871361 2.4236564946861749 79 84 80 1.358553425644331 58 1744 35 1509 113 1314 37 1585 115 876 118 902 117 949 60 2121 116 609
8213 0.84584816929987705 -0.80805487879284132 3.2426222348194149 97 106 117 1.2997979356199414 44 1904 47 1501 53 2026 110 188
8214 1.7341742743027526 -0.85649686702825656 3.5429303391706299 5 4 0 0.87092191542735387 40 95 111 533 112 871
8216 -0.83438991837913745 -0.71029905752479072 3.0015176980057943 114 116 111 0.74406714944933072 40 2855 111 547
37426 0.090369946275822316 -0.6057722648056072 1.0953326219610842 5 7 0 2.0026645387057229 67 1336 103 1930
11659 -0.74549635057985497 -1.0310180140668941 2.5964169701429962 97 107 109 0.2239197306211792 53 2587 45 2182
15765 1.0633490834787562 1.6967489572367715 0.65951781571373846 24 35 45 0.57486248373223803 42 1684 63 2764
36851 1.0237966172324968 1.2861428234058483 1.6163826775216341 195 196 198 0.70183917110829042 74 2764 69 2501 73 1301 76 2435 80 1289
8218 0.87500459233324279 -0.64476699481608335 4.4309373769759404 0 0 0 2.04544744751351 43 1560 47 1414 105 172
8222 0.79566296595067598 -0.14609854428496577 2.8126402899834306 114 125 136 1.7411559648178592 44 1649 40 1152 62 2063 58 2196 109 1102 107 157 41 2308
9609 1.0721715947986947 1.581003275570896 2.5701181416332539 38 47 52 1.7737577228272319 110 2234 45 2585 45 1601 35 2290 54 2286 37 535
8224 -0.19383721437319573 0.056635101745063358 2.1714634049628025 0 0 0 0.77700427746906964 44 2068 46 1370
37751 0.63427138827901997 -1.7429452454822216 2.1360535759003101 10 11 11 0.006719143512909382 130 1441 129 1622
8226 1.1342786647046821 0.15356347162999925 2.9766538021890465 226 219 209 2.0804351089762601 40 183 111 570 47 2952 62 796 44 771 64 762 51 452 105 114
11613 -0.28879655502750406 6.128091689402293 6.6851409694845998 150 160 170 1.3895921794519803 59 1863 45 2007
10066 0.35922457592380985 -1.21652609624774 2.0435444593822751 131 119 122 1.7772186210676746 44 1079 42 982 45 1066 65 2173
10957 -0.1168185746712591 -2.097005432358594 3.9238020240705715 0 0 0 2.7303044709407933 44 513 47 1330 48 1470 111 1789
8228 1.5985303070039159 0.13319661434628169 3.2307873227236197 3 2 0 2.0667409204039169 108 471 111 572 110 117 40 124 44 478
9927 0.1938562655483608 0.7502664874473729 2.7830229017444332 0 0 0 1.6454686575036848 56 2815 111 2636 105 2082
8229 0.67397888363880221 0.28949003979005095 3.2062386701284176 96 98 93 1.6729666547280662 44 821 111 578 110 712 53 1369 42 1131 61 324
9044 0.81401078751597089 -2.4979957974356104 3.0021380784895788 0 0 0 1.9611302698881239 58 275 111 1341 60 1747
9920 0.17649755384005567 -1.0005835887304657 2.3794354510660196 164 135 106 1.98863757323873 46 619 42 169 112 523 41 2111 109 590
8231 -0.069007804975321094 0.24273432530824665 3.0470906717381414 109 106 99 2.1069806273436047 43 228 111 580 105 1289 109 2068
8233 0.24182301265149006 0.33464144331929846 2.8610804772671745 113 104 97 1.7372810494302982 111 583 110 520 45 1838 112 1774 108 242
9048 0.87830929743985242 -0.78831160192002048 2.0008548418931653 13 10 3 1.881946565420576 42 1284 45 1450 48 2538 112 675 109 2501 105 519
35717 2.5134560570632885 -0.97964515240115635 -7.8244840951273398 219 241 78 0.50547736187127634 1 1433 7 279 8 1011 5 989 2 1519 6 1217 11 1242 12 989 14 1332 4 971 16 1252 13 1601
15054 1.0039045382781557 0.68478796600334024 2.8983894192760542 23 31 32 2.3006594181835909 40 1631 111 994 44 2209 42 1850 41 1189 52 1747 62 402 111 787 56 2847 51 1206 112 1615 35 113 49 679 50 599 113 2450 108 1615 105 2042
37400 0.98330755980427331 -2.2180127016143905 4.3843548484540209 148 139 124 0.31855757732491952 106 2277 103 1815
11693 0.45290612327633989 -0.15546285103970159 1.2032329643784496 101 101 95 0.64129194964825964 42 2651 45 2324
11996 -1.0774487452413315 0.36513759176140742 2.7910462500319828 169 171 166 2.7276276498787788 40 2184 52 708
10973 -0.74017650052353623 -1.7864927317323329 4.6470948326462329 0 0 0 2.6338006287655769 43 655 53 2580 56 1606 110 1952 62 1372 112 2382
8243 -0.11657099653843454 -2.3811430952612294 2.6119764923531665 118 167 230 2.3152416201288579 53 633 111 618
16302 0.93777675995582266 1.7242658078997646 1.1216698782351033 91 94 99 0.13491585277079809 41 2580 35 1624
8255 -2.5857539471525288 -3.4162510909873403 5.4415912490387957 0 12 0 0.53377834976560878 58 1870 111 646
8260 1.7969670842053649 -1.4560831638107012 3.4733828786939314 91 78 61 1.3726074268360153 40 1069 111 655
9719 -0.56590732651631193 0.28582048547422706 2.8891594481556759 166 170 165 1.9043648784621905 43 2122 59 1722 110 518 56 2181 46 1935 111 2515 108 2342 109 1146
8262 -0.27653630891112757 -1.6799550493299047 3.6010085035409061 104 110 102 2.4946315360065197 40 1415 111 658 56 757 52 2047
8265 -2.0219179707491466 -2.0504767092355975 4.8075342595668813 13 29 27 1.5299418172389945 58 590 111 667 60 559
9208 0.87810726505630032 -1.6145293819469981 2.7695698891141318 79 67 53 1.6920995476445917 55 1020 110 812 58 1139
8267 -0.5306090801939185 0.92824160674655487 2.3512570943871784 209 209 209 2.1989404585096901 44 706 108 24 56 2884 42 1520 66 18 59 304 43 2278 63 1553 107 36
8268 -0.65910050942771248 1.0709309764772743 2.826493430414208 122 126 125 1.9321020817889558 46 911 47 914 48 995 111 686 42 1932 112 1681 42 334 45 885 52 1783 63 864 62 691 40 834
8269 -0.45038097018943385 1.0628480959269064 2.5135042623290582 53 59 59 2.115548687081056 53 982 110 1215 42 1536 45 892 64 1632 52 1788 51 1920 63 870 55 2315 61 499 70 172 108 717 107 412
9212 0.27693536557744575 -2.0178268622374618 2.369992246826071 40 34 20 0.19998991818532136 60 793 110 823
9721 -0.28342508193320259 1.0775100667688819 2.6440665482329524 73 87 69 2.285801662404098 43 719 56 1093 48 773 46 762 47 742 53 985 40 2391 58 2858 111 689 110 596 110 1211 43 1230 56 1091 48 1001 46 1665 47 1636 60 1228 108 925 53 1840 44 1281 44 2895 111 1032 110 2547 42 1201 112 750 45 757 45 1548 45 2441 52 339 62 685 62 1642 64 2385 51 1175 51 2163 63 871 63 1569 35 1179 49 1796 50 2298 113 1282 113 2593 113 2606 37 836 105 1382 63 2434 107 894 65 860 112 1679 107 408 66 2532 106 669
15811 0.65390626008085917 1.4050803045057532 2.7686979768378568 79 86 83 1.6927659133394188 55 2369 43 2518 60 2760 52 2703 62 2417 64 2683 63 2857 56 2024 43 2526 53 3089 112 2773 52 2716 112 898 49 2557 35 1707 105 2249 107 1747 117 1850
8273 -1.2052463315375281 1.6756433158004984 3.1227548232745974 46 51 55 1.7914673245037172 47 2599 111 742 56 3044
9510 0.28336055208641864 -1.507618904673151 3.4580325128053295 142 125 97 2.2883006333871907 53 1532 63 1241 49 2624 105 1086
37555 -0.30553224667124745 -1.1642278537951338 1.6159308589048071 168 172 173 1.0485658095189248 103 509 100 536 101 403 102 403 68 460 98 2747 99 441 94 2884 93 2317
9156 1.3722771513463445 1.3376874632754119 2.8476195721369195 24 30 28 2.2404797582179437 48 328 110 620 112 36 62 995 50 847 105 2223 42 1231 108 1883 46 1071 47 956
12230 0.57968430316542696 -0.52152998602490597 3.3504431921380129 112 113 112 2.0287105380816657 40 67 52 2231 64 797 51 700 63 2387 54 1049 49 540 50 722
8281 0.12245308131934027 0.3184937983755623 3.7571165578883008 190 182 171 1.5039091809759715 58 733 111 801 60 661 52 709 105 663 53 580
9160 -0.68575543227111702 1.5219397195211184 2.3630803481988774 181 194 202 2.560073841129678 46 2878 53 2852 108 587 110 652
8283 0.071577667261087982 0.26907769112502045 2.9527484497582375 211 209 197 1.7816367599751695 43 1201 111 813 62 2148
38529 1.2497201983938417 -0.22317644737862807 1.4042532813584157 9 17 12 0.65655232679942843 94 827 98 2375
11560 -0.6487710386847344 2.109863762421829 2.3195873473574142 124 129 125 1.8695729100269638 53 1999 45 1664 65 2635 63 1045
9005 1.4817337091914933 1.1451485794030525 1.7705893990103108 90 104 104 2.0845250741806138 42 345 57 853 59 870 55 534 60 743 64 999 45 362 60 1145 49 1145 54 1558 50 1079 113 941 42 2296 110 368 52 612 115 2461 58 2553
23955 0.22378080346120485 -0.26998205703402678 1.2537525618783754 190 180 170 0.42873885688283619 35 549 37 434 38 468 115 763 118 761
10130 -0.37686698848575345 0.50759421662384541 2.4076296102447849 147 150 126 0.98739908563135081 108 2416 112 1596
8294 -1.2523976433181971 -0.67273223108434288 3.4581478610673586 0 0 0 1.3066751487143944 40 1507 47 857 53 871
9617 0.82201163704446367 1.772489042857128 2.4116433484795667 0 0 0 0.91634284121616594 48 1795 56 1938 105 2284 109 2147 62 280 42 2658
8295 -0.44705116702915931 -0.20547669755056305 1.2569029990010967 0 0 0 0.62574040651374763 40 1134 48 1418
8296 1.1433864846799371 -0.67027809340512268 5.0682087982690476 0 0 0 1.379240963992272 43 602 46 509
8299 -0.39873542438709542 -0.80160717957496175 3.3948160778768046 140 144 147 1.4960023895381442 40 1115 111 876
35781 3.1427647719861396 -4.8649623604409102 -14.862649410299406 103 109 75 0.37362030111731775 1 1341 6 2347 5 1756 11 2260 12 2259
8300 1.237604190763268 -0.37302832166948408 2.4080434856654165 107 112 118 2.4741361528328802 43 457 111 878
9625 1.6456025924330646 -0.93249618678675694 3.1252107180545412 45 61 88 1.9926733420065339 57 1118 110 2346 49 1434 54 1345 50 1856
15843 0.23719650681670018 -0.24155025033571101 1.9894996175080171 191 192 184 1.3750354224314358 45 247 65 1357 111 1824
8305 -0.33330848913559274 -1.0587487284647785 4.0585094098250662 0 0 0 2.7169733089775407 40 209 43 1535
37666 -0.041179283603856788 -3.5040286420080053 3.9180093438736359 17 57 96 0.17957741377556716 103 2127 100 2220 101 2635
8311 -0.37758978076844968 -0.024936387798033567 1.0806265404389925 0 0 0 2.6135783190773973 44 1999 48 525
12262 -0.013515770318367433 1.6198589962244898 -0.094930141778531055 66 78 90 1.6711728795641305 58 2177 60 2391 52 2486
8313 1.1930889059130456 -0.091102916088907276 2.2900469721774068 89 93 94 0.0024014152118064132 111 930 43 1586
8315 -1.9177065571187684 -0.55193945453339777 4.3383142312798153 106 104 93 0.9270870678101385 58 830 111 932
10218 1.336156648623867 0.78044788455624181 1.7316120076914068 215 216 220 0.65268274310162266 44 1250 42 1892
8318 -0.24852193663571145 -0.12895163589729852 2.6362404660519916 145 139 115 1.8306473428596566 44 2033 107 2278 110 115 43 1165
36368 2.3291682753401957 -5.4492401139289237 -1.8095630960400033 37 52 25 0.49313905901685662 4 591 16 619 14 561 13 951
9705 -0.15881968298870211 1.4826301777056796 1.9237809894730631 11 15 24 1.2028535283059498 56 3113 35 293
8319 -2.1847916518077048 -0.48277274580447549 4.9379808321433583 0 0 0 0.5786822498690658 47 2471 58 1546
38491 0.2349714539107205 -0.46648412170562803 1.0667228346932953 10 20 11 2.5916176782801363 99 903 94 137
9494 0.3555726983019864 -1.3366895362229914 1.6909018904523279 221 199 186 0.85696993246121311 48 209 110 1879
10003 1.3046305499133362 -0.43769515978167156 1.6031446666663298 9 9 11 1.0197366402580685 42 558 45 462 63 1140
37758 1.2783908909777628 0.33858607854111283 0.4742804397623836 157 165 176 0.93462826330606386 71 591 101 30
8323 -0.5458076537262978 0.14919886481899233 2.7515549312234966 222 221 213 1.7981164928414941 110 1787 105 1705 43 2097 56 2155
9492 -0.31533707498488178 -2.2438786068130199 3.5491780928782872 181 186 178 1.5894330546923985 53 1457 52 1958 110 1872
9500 1.8152075944934247 -2.0080693087232158 3.8258840554930726 213 200 183 1.3019074036140657 59 2043 110 1897
9057 0.57497297304082806 1.0574206115275515 2.765852576254189 109 120 114 0.88658189659678699 58 383 60 440 108 274 110 299 43 204 42 321 112 318 45 186 53 336 51 273 52 341 50 452 113 287 109 288 105 259 61 1509 107 927
8339 -0.84685631434948494 1.7243033207126004 2.7194314733216722 26 31 34 2.2829355004975054 46 1716 47 1695 111 1078
9061 1.5318898886367573 -1.0126620901114121 3.0031185823561173 46 59 94 1.5314324551116716 57 187 59 205 110 314 54 204
8342 -0.99533069073394043 1.8194322468041626 2.7502201530305266 115 119 128 1.7323525421734522 47 1828 45 291 48 1765
12135 -0.72147187888616116 0.06071500659262364 2.7127092741714005 116 121 115 1.7392124606736854 40 1567 52 1662 41 74
8347 0.26586520997661983 -1.4877109885938733 1.4760953125702156 0 0 0 0.43529295349226071 48 356 108 1424
11624 0.75962913452223435 2.2337171592021625 0.60792935360806777 48 56 69 0.30261056919626161 58 2452 45 2066
8350 1.5035364128802398 0.11714809777779198 2.8178039510454216 112 114 113 0.56776545226359942 40 1559 111 1109 61 823
9009 0.13877619128528212 -3.1317171127078485 3.0939970808885078 210 201 185 1.9358106175900809 53 614 110 173 52 415 105 857
8360 1.5206667986139759 -2.1312715279366441 2.3933336108935115 208 196 172 0.40284023728037072 108 1028 111 1154
11739 0.80372807964889736 3.1408187835416443 5.2398352949284419 189 191 190 2.3262168137821275 46 2823 45 2682
8362 1.1292766835367429 -1.667409277640663 1.7948751059554995 182 167 144 2.8392996243460149 111 1157 62 1007 63 1383
10043 0.49777995793764113 1.610824018322941 1.1504001480725963 0 0 0 1.3565410060874623 48 2137 60 1320 49 2000 50 2451
8368 -1.1262866824483357 -3.2081231137183068 4.3039119074085033 20 34 28 1.3835861007619128 56 2489 111 1173 112 259
8387 -1.6158289692601573 -1.9668385558689041 4.6484273881212319 0 14 17 0.78787006502773793 58 1410 111 1217
15905 0.26551558015935384 -1.8655371601269011 1.8558493522908808 70 103 134 0.74530810556885763 64 2272 63 2839 112 2215
37299 -0.3846348553868898 -1.6327795366441213 1.5464991023030106 166 167 161 1.1243808052435069 104 1312 103 1036 100 888 101 905 102 895
8388 -1.6273400240184994 -1.761366765058477 4.2758120050271762 15 41 45 2.0038789416486624 111 1219 49 33 54 545 50 42 50 687
9765 -0.13070507338330797 0.65257250416531964 2.6978809582631804 64 65 59 2.1921585111677624 53 1774 108 1618 48 571 55 1807 59 1799 110 1666 111 990 112 1620 111 1621 45 787 52 1738 51 1858 35 1801 51 296 54 1120 45 1907 65 128 61 860
8391 0.70242047644141481 -1.0093922231640589 3.5332967112643381 157 175 180 1.712541835930528 44 1120 56 2754 62 444 58 2053
9049 0.21112741179820699 -3.3386299153365337 2.9441111177029109 190 177 159 0.39061970812273328 111 2858 110 257
37249 0.0024353890335666087 -1.3435478320999248 2.1835252107986216 134 139 135 0.4875556164508929 61 551 103 508
8394 -0.70896229130844157 -1.0120895333346545 3.0363737571683509 102 111 104 1.8169946421675873 111 1238 110 2003 40 104 56 1539 45 2218
10075 0.87639246303474694 -0.73539643184042292 1.7454574150783344 133 140 150 0.35209355751843407 44 1104 42 1008 45 1091
11608 1.2474624046977425 1.7033814217026584 0.31135233802996126 146 145 141 0.60623720367484402 42 2599 45 1995 64 2995 63 2032
11817 -0.7117020515971153 0.057019479224781469 3.4433260501078742 212 233 236 2.1915764032737508 108 97 56 1707 111 142 40 2116 41 1243 52 202 62 2124 110 507 42 1741 51 1794 60 876
8400 0.88613014260123046 -1.0145172346973974 4.5809163899570047 0 0 0 0.47886797175796914 44 230 56 1641
9121 0.86171692862778493 0.2635336793450026 2.9676742722980665 133 133 121 1.7149753413925377 53 52 44 2112 40 2142 45 337 41 1369 51 1251 64 882
11833 0.15626449941242801 -0.59613449283216058 1.3690906422197275 180 178 167 1.0240138541165815 45 448 51 400 41 2134 63 451
8411 0.8200844726042309 1.637353262377014 2.2316743251970488 141 152 162 0.80306416622152788 56 3303 111 1305
9789 -0.72128382468291785 -2.1706123499950194 2.4917138071866329 0 0 0 1.0051979947009446 53 2418 60 191
8415 -2.1519928931096306 -3.3475504319639571 5.5068186715939937 32 39 33 1.4880355229296838 58 570 111 1322 60 543
8419 0.1391409606708344 -2.7105717144067225 4.7697583197036062 209 187 172 1.0156907987354462 46 2216 111 1334
8428 -0.032601123178454629 -2.1583486482030461 2.9286563625920574 85 98 117 2.9639402703062312 53 1425 111 1351 49 1674
9085 1.6269894972176531 -3.4641435172265878 3.4451515081548196 192 178 167 1.3115701546657523 111 1128 110 435
8433 -0.19644513469920663 -2.2490266056919266 2.5439055367244117 141 178 222 2.0788152505107709 53 1662 111 1362
9542 0.6899711848034511 -0.67391870868244341 2.2345170783969945 19 24 18 0.7897307646345153 48 2597 110 2020
8450 -2.3923181887217364 -4.3936035143569256 5.9872727481810513 25 34 35 2.7640682113472632 58 1813 111 1429
8451 -2.4079515943525838 -4.3849554960396357 6.1852742866761981 10 24 7 1.2638645730373503 58 1332 111 1431 60 1016
8453 0.29946397860706558 -3.1065221035741182 2.9952942068457267 150 154 163 2.0222957750041841 53 1619 111 1440
8884 1.4169509540954357 2.0993981596438536 4.008385325573526 19 22 31 0.53282204528416588 46 2717 112 287
8455 -0.014267425412761778 -3.253647892743103 3.1764835957001125 124 165 219 2.473441636491541 53 613 111 1444 49 885 50 969 113 238
8460 -0.60447540250661902 -0.71715688888066642 2.6093689780265148 25 25 19 1.5452521536536432 44 232 111 1466 62 584 107 821
11405 0.72934698386875463 1.4875423833145525 2.0313123643044309 253 253 245 1.6960224868933633 111 450 45 957 63 935
9351 1.5913460535180983 -3.3093471918966921 4.119839775108197 0 0 0 0.64770966343261505 59 1930 111 2846
8471 1.4583880624799099 -0.39926053634402958 3.1463925465268816 129 144 149 1.877835671646735 45 1399 64 2600 105 1551 40 1138 111 1495 61 2355
8472 0.31975961936383229 -0.44073596204278376 3.0924033008728564 194 212 223 2.15187251990627 56 860 111 1496 53 551 35 558 51 2731
37682 -0.10951765148033128 -0.85752677185016934 1.9996013149245804 5 7 3 1.2060834861691603 67 630 104 1162 100 1188 66 1423 104 1516 103 1444 106 1157
11403 -0.060255858622143714 1.4671619048678941 2.5673908034570565 40 55 62 0.67817739693069345 111 735 112 726 41 859 64 1023 105 559 109 1248 108 754
38128 -0.13213499565081735 -1.3358176666997648 1.9033012644621909 0 0 0 0.99816765731794432 68 74 70 479
8475 -1.7388498894331739 -0.75862382510519544 3.9276593897531256 4 28 47 1.6293463563883932 43 1976 47 1345 49 2476 54 1871 57 2156 50 1919
9866 1.0232366236497716 -0.36548333221179086 2.9185475692257437 120 124 126 2.1469163556229161 110 1549 43 1144 46 229 47 836 108 1158 112 1901 53 233 59 1350 65 1268 62 1132 63 339 48 1947 49 749
8477 0.64772434899853415 -0.28205789957636968 3.0077218798419527 169 175 171 0.60174381023584744 44 1989 111 1511
8844 -0.28605646180766675 0.99485478487370582 2.6704237106652919 111 125 106 2.3871549882909133 43 515 56 646 48 780 46 774 47 550 60 769 58 508 108 534 53 782 111 674 111 2734 43 2293 56 2908 58 2484 43 1749 56 1087 47 2058 46 2497 57 829 108 2531 111 2847 44 2339 110 594 110 2506 110 2736 42 748 42 1527 42 1922 112 2653 45 557 45 2527 52 913 52 2596 41 127 64 719 64 1625 51 1183 63 724 63 2418 109 668 109 2367 107 612 112 757 106 420 44 2326 61 1498 107 2563 107 2551 65 510 61 677 66 794 66 2505 66 2627
8480 -0.99062573111505037 -0.58785847628978927 4.3099601066867725 106 115 116 1.3792777620423975 58 1517 111 1514 62 458
11206 0.54686110320539005 -0.34783558059950825 3.0877821949007731 110 114 103 1.4237969009658569 40 1495 111 850 64 786 51 713 44 219 107 789
10183 0.74913939077502256 1.3472789845066815 0.030512127662585996 93 94 98 0.4405083478725863 40 979 42 1676
8485 1.0983836522161032 0.044805176944891223 2.7211840152398579 70 70 67 1.5818861932622739 43 1614 47 1861 111 1528
8486 1.3123439887617887 0.025864574203882842 3.0343669784028653 140 148 151 2.265161903549838 48 832 45 2779 41 1126 53 2187 105 1598 112 157 62 126 110 1008 47 2961 44 2065 40 1175 60 879 52 728
39553 -0.015526598110584501 1.5654536512192623 2.5199387747025681 61 61 59 1.8713622405232284 81 1337 83 2001 84 1180
11210 1.3673738021872275 -0.32153237083850683 2.1244873316717201 141 146 149 1.5465388774093483 42 101 45 90 113 1143 105 2305 41 108
8488 1.0391332515698839 0.016519675922759495 3.3992699503539576 50 47 39 2.8943728846089556 111 1537 107 558
11355 0.62112070296423794 1.5276521740929463 -0.29910575329025352 0 0 0 1.0365208859213171 58 1279 60 2407
35461 -1.7485977684466176 1.5107533379403155 7.0571279517229915 42 73 31 0.3238148857405832 2 258 1 1062 5 1400 14 2692
8492 0.14387818202046571 0.12256430481517494 3.0222365176931145 89 91 80 1.4875156084634178 110 199 40 2117 111 1550 62 1504 44 109
9311 1.2883828594466047 -0.67092750491621767 3.4327441624326829 26 36 48 0.90296804612281312 40 1121 54 1853
10191 0.52555988716101787 1.6319821514400361 -0.22290833827253639 60 68 79 0.23638356166572944 44 2452 42 1713
8493 -0.36803663287893518 0.072978904958335755 3.6946155430012393 121 121 115 1.8448569910116357 58 1595 111 1555 53 4 44 2087 60 2587 109 314
15523 0.5865067127101381 2.3120060742081634 2.7348160074577161 57 73 80 0.26181497235172779 40 395 63 1698
8496 0.14009514336905105 0.34800190571806727 2.7985435728426813 87 83 73 2.2144041260977394 44 197 47 1540 111 1571 110 330 40 220 45 122 64 897 51 745 49 576 53 1364 54 1450 50 610 45 1837 109 1541 105 1301 48 2098 112 1786 53 2213
8499 1.6371795749060125 0.5728246067338274 4.4626142483148294 0 0 0 0.050256622231259984 40 2201 108 1231
8500 0.40841279434117045 0.47879298415545296 2.9298370246486147 25 26 30 1.9966162696277543 46 1985 56 2014 111 1589 44 1721 52 2422
10192 -0.51423301024435142 1.2222590768694683 2.4231939107587039 138 148 133 1.4497513554489758 66 1784 51 2205 61 1522 65 2403 53 2776 67 2485 107 1937 108 1691
8502 -1.3174478056211316 0.35108660184854534 4.0851439542938293 153 157 166 2.0348561053949417 46 1946 56 33 111 1594 42 1270 41 714 110 1618
9377 -0.78903039137474396 -1.23104995526341 2.1109292864876621 1 23 26 0.4007008905956565 46 2232 110 1440
11226 0.086076213944337898 1.3882489902934196 0.50005418795249035 0 0 0 1.7725163606744909 46 170 53 182
8504 -0.26011553272160864 0.52984681974647663 2.548738622775395 117 111 100 0.18168330364095425 108 1247 111 1605
12251 1.0507025022131227 0.3369068669701008 2.9063243333602169 6 7 2 0.70899065885019974 110 1602 52 2398 51 2591 112 2443
8507 0.36560464726590669 0.98313331606527166 2.7303995299686146 13 17 16 1.127017762787399 108 2525 111 1662 105 2144 109 2352
8508 1.5534070191861389 1.0770111390370756 2.5093268585575301 131 136 139 0.39416487560613456 44 2501 111 1672
8509 -0.28915633294038745 1.0499757256752555 2.6912875197783657 128 136 139 1.5692167471171843 43 895 111 1673 48 999 46 1662 110 2537 112 1676 44 1273 62 854 64 1631 51 1915 109 1195 61 1505 105 1379 106 944 66 1774
8876 1.5497762079684683 0.15574016268998969 3.3770471426269761 130 131 133 1.7516802693590416 108 473 111 826
37443 0.005069887053138768 -0.049167901426247607 1.1111143312630398 249 249 239 0.014088557186489908 61 135 103 2313
8510 -1.1988987526263921 1.1032638495715266 2.9528223028307345 104 118 118 1.9178206085466212 46 2478 47 1626 56 1080 43 2753 112 313 45 889 49 1014
8512 -0.58544841396475866 1.3367528047218222 2.4716527810528084 43 48 51 2.2689973285958978 46 1685 58 2166 66 769 107 956 65 701 52 1262
8514 0.56723324391794749 1.4817117051197419 2.7354764901260467 42 54 54 1.0156220914383407 43 936 44 2617 47 965 48 2880 110 1251 111 1734 42 1573 112 1979 45 2541 52 962 64 2718 51 1393 63 2539 49 1878 54 2533 113 2377 105 1414 61 2486 37 2870 58 2589 115 1643
9463 0.66167997552331026 -2.5216359755913542 2.4136291727545869 26 25 30 1.2851188641717717 58 1786 110 1762 60 1029
8518 -0.86892235797075879 1.6180076531114302 2.4883902579825579 46 56 60 1.6620157221448215 46 2644 111 1752 48 2871 42 136 112 1738 45 2582 51 173 64 2758
9457 0.074895574289793862 -3.9094290873365725 4.0985527833616091 181 171 154 0.83107439481498702 53 1613 110 1752
8519 0.63853447093280113 1.6537413257965035 2.5437635766687889 133 139 135 1.9123226368739545 43 1446 53 2935 111 1756 51 2349 114 1609
8952 0.33455238126823478 -1.6062334906174038 2.2402480948007302 192 182 172 1.1291118653644781 58 14 60 23 110 19
9465 0.21004907217553836 -3.0366835806073857 3.3254883779065474 183 184 176 1.095372706350944 111 2849 110 1768
38412 0.69392137147424793 -0.10711660661215927 1.7297200009904881 52 48 35 0.60038390142178755 102 1123 99 2028
8529 1.0725993680577792 -0.70843558063572432 4.3151528845759737 0 0 0 0.80657362929241683 46 1204 56 2062
37823 0.63145803451968463 -0.46417357750539112 1.5745111426700629 13 13 13 0.65483110814164025 100 152 101 630
