# 3D point list with one line of data per point:
#   POINT3D_ID, X, Y, Z, R, G, B, ERROR, TRACK[] as (IMAGE_ID, POINT2D_IDX)
# Number of points: 394, mean track length: 4.8704234320280166
1082 -3.2213905176393021 -2.0611951902464134 11.535485337912561 195 192 187 0.6631883883028511 65 83 67 59
1087 -7.2988115080834337 -4.4850560020790322 21.902321618557526 126 125 121 1.4863780941419804 65 55 67 84
2557 4.5820561591442965 1.1590765425943017 -1.621024415681031 159 162 174 0.2630190542720871 52 196 53 182 55 195
1090 -5.8278541076744901 -2.2872486427673433 13.992614923008777 206 206 196 0.31650007703465599 65 113 66 106 67 98
1091 -0.45668097966152227 0.79775712006400545 -0.57156877976793441 132 128 117 0.4409844620004193 73 112 67 103
1093 -5.8735649455388295 -1.5293966390279832 9.7133291002406477 102 87 74 0.3576435639178987 66 251 73 106 67 121
2036 -0.29107988771602811 3.2936430460611397 -0.20493779852337488 88 92 93 0.54254059391969678 8 265 10 186 7 247 13 190 55 201
2555 4.679597039793232 0.94840927472082026 -0.9774678306803497 64 71 92 0.18095138539654843 8 128 53 178 55 192 56 162
1096 -6.9463369599900444 -2.6391304390295942 11.297579474780502 114 113 109 0.49699041035250358 66 87 67 133
1097 -10.511056302740931 -6.8975265487022881 22.357195338950763 173 175 170 0.38611401604587542 66 173 67 150 65 165
2040 0.34096979256391058 1.2220285518462106 -0.18588452673416755 144 148 162 2.4245889840157524 8 252 7 307 4 278 3 294 2 252 48 264 53 379 49 292 51 305
1098 -4.6704606678843756 -4.2012041156810174 14.438327300268833 217 217 209 0.48455220978344388 65 168 67 153 66 179
1101 -5.6203426472661961 -1.8403815469226423 13.552403100139504 54 53 49 0.60890372231751222 65 204 66 256 67 174
1103 -6.1788938915565046 -0.89260585855371033 11.16921247454634 214 211 199 0.56144847738151737 66 193 67 178 65 207
1104 -5.8835040658481104 0.37319375508961478 5.0087522155280029 209 207 192 0.39416568257542828 67 181 70 119
1825 0.11714967081604834 1.1419071019630187 -0.34167650616537421 164 162 167 2.2086784631259548 11 219 15 182
1105 -6.1110917223013344 -0.38837594809571035 10.827207278799786 153 148 144 0.73444265904255257 66 194 67 183 65 187
1984 -0.35937468268155082 1.1377671623360621 -0.39880646590640378 169 172 187 0.36871487357565574 10 167 8 280 7 262 13 379
1109 -0.35271463838156952 1.1418631452602146 -1.0341898217653556 23 35 82 0.80868900876637895 66 90 73 51 67 202
2507 3.223552142158074 2.8216115482304365 0.47123771631618261 131 123 110 0.3531806070285014 52 312 49 228 53 382 55 339
1112 0.57995782590950029 0.93821211934037219 -0.72133638542248601 148 155 174 0.47574597429473187 66 271 75 164 67 214 70 149
1117 -5.6806208567551604 -2.5473235186148444 14.315519856046167 122 123 117 0.31266264414414102 66 333 67 260 65 298
1996 -0.61215905082499478 1.4606568741151607 -0.67059287098842402 35 34 42 0.59033539988786643 8 116 10 108 15 75 7 146 53 333
2338 11.419497740538127 6.4636936956871134 -12.367937513806146 38 28 19 0.22505721026271988 3 211 5 277 1 213 48 216 52 236 49 200 53 209 50 304
1118 -4.6942470835216925 -0.82923542965652042 5.0649218977533934 209 212 205 0.62955718046214648 66 332 67 262
1125 -8.1263108727369371 -2.1524001924687592 9.151709970315542 115 120 114 0.29575494969358906 66 325 67 286
1940 -0.62448898625542582 1.4332449133135805 -0.63149978583949162 10 21 52 1.8423792892013708 12 17 11 27 15 22 10 24 27 15 14 15 16 15 7 42 8 27 52 162 53 132 55 125
1129 -7.2867124032541515 -4.8926276309122656 16.236017136260578 153 157 156 0.40088127040171878 66 320 67 308 65 376
1133 -7.6389982080632137 1.3403431844274774 5.1972341837345555 198 196 184 0.84198904145512099 75 246 67 349 70 220
1948 -0.66270270683526533 1.4259109176346494 -0.86224037376150686 12 24 48 1.9533384245656134 15 10 8 17 7 17
1137 0.69593936907108911 1.4382238994359626 -0.86961914474844992 36 43 59 1.9707015640415324 26 56 71 708 67 362 30 214
2016 4.4765616891545452 1.0829555634079144 -1.0506648250528641 96 93 100 0.18813441227317806 8 125 7 130 52 179
1141 -7.9338599715949609 -3.3593591293603802 15.155543548114958 193 194 187 0.82572817979463387 66 240 67 394
2020 0.89691716271321131 2.9795433580659041 0.47219130687335709 165 165 165 1.0562488521069393 8 201 7 180 13 98 3 35 1 42 2 29 48 47 51 55
1145 -4.2992961978598485 -2.3989866306601018 12.643708615698133 170 169 165 0.0095989634139741729 66 443 67 406
2024 -0.38345654201872359 1.0767367810824646 -0.46119349678704263 131 133 156 1.1456079346071346 8 320 7 195 13 223 4 214 6 345 5 340 3 337 1 275 48 139 49 138 52 146 53 122 50 228 77 266
1146 -5.4953376588194649 1.5005687630389672 5.6029414788227729 209 205 193 1.0784979179923506 66 348 75 549 67 422 70 203 23 325
1149 -0.089136156979454234 1.5672133515581479 -0.36667710215667992 47 53 67 1.8040131442865233 73 476 67 454
2028 0.08116158528739037 1.048273382197483 -0.35964153100067869 156 158 179 1.1514866136925634 8 344 7 203 13 178 4 348 13 385 6 339 1 149 2 268
1151 -6.0850135081540504 -4.7443072887665902 15.269018553873819 142 142 132 1.2923345951076264 65 504 66 519 67 512
1152 -7.3183954837150589 -1.0844010669284285 3.4188626804862898 220 199 177 1.4709743880542396 73 652 75 425 67 513
1809 0.58018920431923982 1.4162973873051175 -0.14666011602263199 79 100 151 1.7920867843871813 11 191 15 78 10 85 8 110 7 116 5 89
1156 -5.734382982506169 1.3812557581462623 5.9153595788506976 209 205 193 1.9984052092277711 66 454 67 591 70 412
1813 0.68277991999289145 1.1505239515645735 -0.12538167664822278 27 26 24 1.3912876971397095 11 348 15 102 10 360
1157 -0.24780452348544152 1.0090438051468356 -0.72670112171530887 65 75 111 1.0842295006949012 66 40 67 40
1160 -18.038337558590321 -19.106031851445263 38.820730210223211 140 132 119 0.92447710297083763 65 236 66 217 67 558
1817 0.71405543751893785 0.90599107880099961 -0.21204053097508263 206 207 210 1.692568135500824 11 254 15 126 10 67 8 65
1162 0.80749875368371604 1.9221619413326134 -0.23606512103324193 152 156 158 1.5825037464743856 32 6 75 32 70 12 64 13 34 3 36 2 32 292 37 4 37 266 28 1 28 148 60 10 62 8 63 8
1164 0.87658896837300304 1.1340398477278069 -0.89758754003619445 27 48 111 0.70959884677599916 75 21 70 22
1821 0.72974028008369696 1.3119534523495522 -0.074591866396784376 221 222 217 0.59725007663463137 11 376 15 145 10 139 8 79
1167 -5.174471801700232 0.96382525756526549 1.7532300320713332 213 206 187 0.42369807408602522 75 39 70 33 64 21
1171 -4.5905287209395027 1.7044917052628257 1.3039167775357596 177 179 158 2.18287180110659 75 95 70 82 64 59
1172 -4.600971356448321 -0.70266398716729717 0.32550355121206176 193 192 187 0.83207556871910637 75 65 70 90
1893 -0.64192153019177756 1.1537971930381254 -0.63374243342242542 102 102 100 0.742577518038264 15 122 10 151 8 159 11 85 53 255 52 280
1173 -9.2608611576729309 0.25983032851326421 4.2032400312494929 125 112 96 0.12244569010016321 75 120 70 94
1175 -4.8231650045034939 0.81629121146176808 1.3499681683268159 217 213 194 1.3541856874967324 75 109 70 120 64 98
1176 -4.8447706285075212 0.69216322406494901 1.1622003325976824 94 91 76 1.2329240606456511 75 222 70 125 64 96
1897 -0.54689603760227323 1.1768601514947017 -0.45724691424981612 187 190 199 0.37139228534775925 15 234 10 166 8 169 7 159 13 170 4 223 6 212
1178 -6.3132913490155218 -0.033496437926120816 4.111817988034514 200 199 182 0.81342365559889063 75 150 70 131
1180 0.83548323028371974 0.980251509081288 -0.51249069222617138 36 56 107 0.78200083744680893 75 223 70 150 64 75
1901 0.8211867327005582 2.1592591242775034 0.20077476055681942 77 98 151 1.9557383015400196 10 180 7 294
1182 -9.266661092961062 -0.44581367127261301 4.0752824878990355 207 208 200 1.4191344257957141 75 209 70 159 64 167
1184 0.55582320166615118 0.88919807839941611 -0.4557032037744802 34 54 109 0.58319636291637189 75 240 70 191
1841 0.36791958589707968 0.95224839041076437 -0.27233059057921205 149 151 157 0.27596422453093794 11 364 15 276 10 289
1189 -11.134288785969719 -1.7815958306553685 8.1631246821547094 139 138 130 0.75547818362381891 73 342 75 362 70 236
2004 1.8666943120522919 2.1475561204255809 0.058189855317442217 13 26 59 0.087047457797095912 10 28 7 34
2871 0.79845012812489602 2.4876037271452978 0.35653181604065193 40 53 87 1.0832615089470776 48 274 76 298
1190 -42.098916287042719 -11.954158303182298 31.916957416546712 29 26 17 1.6750571037821249 67 254 70 241 73 352
3030 2.154193395368571 2.3666760584685327 1.7980258125838413 168 158 149 0.29214169537311302 54 353 47 460 46 341 42 273
1191 -9.0495880197670679 -0.38617982742451412 3.6544667581741002 201 202 194 1.6478061749569328 75 208 70 243
2523 14.359771738803939 11.05847616171604 -26.171486366875396 77 89 110 0.25850136028469906 48 319 49 341 50 288
1192 0.23558870974008381 2.1030233927784208 -0.65830751763869622 29 40 68 1.798698663720631 32 121 75 91 70 248
1849 -0.13387770547205916 2.8123183099021198 1.0842684685904949 178 163 142 0.20530803855563748 11 303 15 310 10 336
1203 0.83591988467978218 0.99219677533984096 -0.45812616202830453 110 123 140 0.20228886496093754 75 591 70 332 64 271
1204 0.86521425673785368 1.0205137418409136 -0.4896837687789225 114 118 125 0.38032034775771817 32 389 75 599 70 334
1797 -0.45173803005941776 1.3743246671032912 -1.2324677410380551 36 42 67 1.8626812786989042 12 202 11 307 14 134 27 236 16 243 12 326 9 283
1205 0.89015677435489227 1.0807332698641852 -0.53620463835523124 73 80 90 0.87856944555403482 32 253 75 309 70 340
2823 -0.33339414845012161 5.3385006329913605 -12.370010248163728 32 45 53 1.7612043671791122 50 212 74 342 42 490 41 324
1206 0.7464538363529114 1.2425122077381807 -0.17764968594176583 155 158 166 1.6743859534321941 75 504 70 342
1207 0.82873444013930808 1.4298332750976424 -0.42414051387490032 125 128 136 1.7937833356525312 29 174 32 569 70 346
1212 -6.5503045322265256 -0.71983160146597214 4.0757425264104494 126 95 58 0.89016099734428933 73 404 75 712 70 413
1805 0.64646791055718666 0.8130303468106298 -0.31238618735087154 183 169 156 0.87560412317772363 11 39 15 29 10 32 8 48
1213 0.91644911384706595 3.0715772660359164 0.044696856819087284 23 32 65 0.6728714030679438 32 447 70 420 64 301
3623 -0.67451902059434188 2.1264673467198607 -0.40098205359516087 146 140 139 2.1471602532660854 39 115 43 152 69 226
1217 0.79740585567464994 1.7853771892097847 -0.29761705624452417 154 157 167 0.74921045531539032 30 223 70 495
1220 0.82988359729748551 2.9295694712152098 0.45989979612336973 142 144 144 0.40283940497130177 30 70 70 546 34 293 64 328
1877 -0.60670296691521974 1.2154531121821646 -0.44947625483948728 144 147 156 0.89008280614933055 15 131 10 92 8 349 10 313 7 217 13 240 4 230 6 217 5 216 3 176 1 172 2 176
1224 -0.60050412883382576 1.1508971862508035 -0.6120353557088114 53 61 90 1.8315308120860656 59 14 61 13 57 6
1881 0.31933680580831358 0.97908220640972743 -0.28604152006577005 145 145 153 0.32468164971071695 15 94 10 110 8 137
2594 4.3599630087425609 1.56582348423703 -1.1483427210497019 23 33 62 0.83291861022952784 53 364 55 212 56 304 58 290 16 427
1228 -0.43816907378970193 1.7772901495357867 -0.4694706152508808 41 49 70 1.8262356404685509 59 174 61 86
1885 -0.64420407823630443 1.2601321696883436 -0.48213131629765377 175 171 170 0.092793035770202148 15 181 10 116 8 274 13 363
3639 -0.25129574382629971 3.0370218533170741 0.048562057411718214 42 74 142 1.5548991674325219 74 12 69 5 41 6 40 8
2314 -0.51339344639393703 1.605212062378899 -0.67870620837928175 21 43 93 2.0075980806069431 5 25 3 24 6 155
1237 -0.61788102948682389 1.1894056090170364 -0.47123749031392825 125 124 129 0.79496307103676744 59 379 61 309
1240 -0.70965214002738231 1.2347374914170759 -0.56375807800329381 128 127 125 0.12216355756111291 59 462 61 316
1961 -0.61660356468271071 1.3897886822306054 -1.001565424769711 166 156 148 0.59082337100937943 10 44 8 94 7 134
2617 15.219254214520728 15.04282771277631 -36.186106132187049 85 98 89 0.48075712475887861 48 45 49 50 50 44 51 64 77 42 76 50 54 58 47 79
1243 6.6553588719971319 0.97212001903660594 7.1843042880030348 161 160 155 0.92914762012085506 61 435 57 366
2472 10.278308815482918 4.4361812077380725 -5.9563023576048044 221 220 190 1.6366877359656571 6 32 49 28
1248 -0.58979705028333518 1.4766530174748602 -1.0290472254545342 164 155 144 0.3293065077492317 20 33 27 36 14 42
1905 -0.57905879369489477 1.0860190349632224 -0.51801535369928586 132 137 157 1.2367153898728733 15 227 10 196 8 215 7 338 13 194
1252 -0.60410063821796312 1.4269603233911432 -0.73282681941171945 116 115 119 1.0173135066707446 20 142 27 85 14 92 16 128
1909 -0.32286301184328575 1.0727263065162262 -0.44935491188095944 113 120 130 0.56653723871844186 15 210 10 205 8 222 7 170 13 225 4 215
1255 1.0175004337103788 3.1596553935481371 -0.027419681451103732 162 154 139 1.5795650418029046 38 21 27 107 61 77
1256 -0.51987050564884985 1.5819045861489212 -0.8321823157774203 20 32 56 0.4434920393393329 20 303 38 242 27 166
1913 -0.58505458627140727 1.18533988019769 -0.45446234068268304 149 150 155 0.49068754524635516 15 280 10 224 8 302 7 263
1260 -0.62967259825424826 1.1772149593537202 -0.71240078275419561 108 107 112 0.61077297213508663 20 231 27 199 14 137 16 143 12 171 58 310 57 427
1917 -0.5211823513020345 1.0677149906253658 -0.47800470964522362 186 191 205 0.086380043337315374 15 329 10 259 8 298
1261 -0.470184122272367 1.280132987710058 -1.1972926447468464 100 110 150 0.58406127952553721 20 176 27 204 14 132
1263 -0.60915323138660926 1.2217091603901709 -0.77891715411803053 98 97 95 0.3076710644047147 20 363 27 250 14 234
1264 -0.6188999430784029 1.3313069761230825 -0.93839519251602954 155 143 127 0.31293363076643432 38 435 27 257 14 224 16 231 9 171 15 357 10 294
1857 -0.44767524100293399 1.7645293015672101 -1.0442321535907364 190 184 162 1.110014718763072 11 17 10 15
1268 -0.60373551374223156 1.2467393930571455 -0.87708243223707938 119 116 110 1.4779028111626158 38 415 27 320 12 159 9 286 58 339
2346 -0.37475867664552331 2.5523393847083193 1.728670391591697 175 166 151 0.07175982683765561 3 140 2 118
1269 15.429365724865942 -12.887366248560568 16.346191880785742 237 238 233 1.0051529823442205 20 235 38 378 27 331
2887 0.37210414788364493 1.1775052832285429 -0.14364378593651214 98 110 137 0.64551405937483108 50 245 76 294 74 327
1270 -0.51494810835118965 1.5263299668436929 -0.83679391256415381 95 95 105 0.20415480659515034 20 354 27 375 14 366 16 419
1272 -0.5522626601556474 1.5845039322989534 -0.78423478194462226 103 107 119 0.46634876290444316 20 304 14 324 16 226 12 195
1865 0.13004849883489761 1.0466476527881652 -0.32862963235211806 204 204 214 1.2302649339409688 15 58 10 45 8 64 4 53 6 58 5 70
1275 -0.52304271012974124 1.3522853617618988 -1.1249410028427909 114 112 113 1.2662673180917381 20 348 27 469 12 302 16 251 9 292
1277 -0.48479061725211947 1.5084217767067711 -1.0700712544774074 117 117 122 1.4284640020640256 20 195 27 532 14 301
2370 0.06158734102613956 1.1257986207363013 -0.40908953741488824 79 89 118 0.6472182562032146 13 239 5 213 3 325 1 271
1278 -0.44131232405196552 1.4489032931533168 -1.2204146218376253 186 187 182 0.080585664085696826 20 373 27 539
2243 13.229918004775671 3.3794452608855829 -21.773503219928006 129 124 118 1.6154209934732138 3 127 2 153 5 249 49 169
1280 -0.55036015235152647 1.5354698029921661 -0.81325261637327284 117 118 122 1.9140294104782394 20 410 27 570 14 368 16 428 12 281 16 426
1712 -0.71803893818654252 1.3311026257145897 -0.69790097364375137 73 77 85 0.30262730273175087 16 448 12 306
1716 -0.67320759040128275 1.1423844858461063 -0.5701714529959202 89 92 107 0.3530199322076486 16 270 12 349 9 161
2742 1.6145796639219945 10.264446305033941 -18.979746399344641 91 91 92 0.63769533366025744 50 144 51 259 46 423 44 503 45 473 43 459 42 316 39 282 72 252 40 245 41 241 35 267
1287 0.8269035956615064 0.9592104633497659 -0.36382777394538879 102 106 118 0.80508676373721355 32 94 34 66 36 31
1288 0.95010078856339597 1.1984489208080267 -0.53229348196189941 77 85 106 0.28853063060566825 32 108 34 86
1289 0.85275598862190127 0.9931091728322532 -0.49576751542047243 46 53 74 1.0221840283536558 32 166 34 110 36 33
1720 -0.63962423040529726 1.4239565059759107 -0.7295032662631743 83 87 99 1.3014677868014408 16 290 12 397
2261 0.017280034806850818 2.3816924080460886 2.0876644675910976 172 162 150 0.34360934224379402 6 324 5 344 1 206 2 290
1290 0.82412254627151427 2.0722360765553369 -0.16387327792842241 193 198 188 0.35896594099879514 32 149 64 256 70 531 60 152
1291 0.83683625228273939 0.98945957143961893 -0.4612638542192245 110 111 117 0.50228162842141444 32 189 34 128 60 135
1293 0.82885414088995468 1.9012511559792029 -0.30989640584837236 145 143 156 0.21060663974784771 32 288 34 193 36 124 37 211 28 102 60 166 33 190 35 400 62 304 63 231
1724 -0.68603248945430861 1.3382859869928994 -0.6718722684611903 112 115 122 1.0399800261296315 16 282 12 415 11 298
1298 0.88001097129233508 1.237042983901669 -0.3613193120913562 120 126 138 0.37593359996987452 32 333 34 268
2189 0.10161449332984041 1.0257400635920675 -0.36520833697361016 97 109 135 0.31958927031461715 4 357 6 342 3 334 1 274 2 272
1303 0.83285167447425568 1.9641786863609558 -0.28575839763140753 82 81 87 0.29441270003591413 32 386 34 286 36 245 37 370 28 254 33 256
1304 0.79587658541833806 2.0184489292510888 -0.06139078112618785 30 27 62 0.73159638476993216 32 332 34 288 64 315 36 187 37 373 28 258
2187 0.31787042989042785 2.6124073870080027 1.38311689772538 152 142 130 2.1586426215902148 4 329 6 310 5 305 3 284 5 187 1 252 1 299
1305 0.8806382611210456 1.0580202991547145 -0.61308040643393014 64 70 84 0.12819695962313518 32 296 34 298
1672 -0.75131342644078969 1.312618973775117 -0.66764943267388299 56 61 80 0.79525298569064673 14 432 12 221
1306 0.82160586443770789 0.96842639016862775 -0.41462110616055198 109 116 131 0.83864179288832252 32 484 34 309
1309 0.97224421739818923 1.185925685801464 -0.54121557359709538 70 78 98 0.18008656003101364 32 515 34 331
1676 -0.66138997913926834 1.1099863904160456 -0.5787949347244663 41 53 92 0.71882866987574356 14 351 16 365 12 330 9 279
1310 0.96922839465075417 1.2667728133686031 -0.61479547727672934 70 78 91 0.43682823572007168 32 524 34 340
1311 0.89982865512635346 1.059647222432188 -0.35680404624445128 122 125 145 0.064100497360885633 32 403 34 383
1312 0.8040882709798215 1.6981403086117342 -0.27777930518016952 25 24 66 0.47551928413197364 32 576 34 394 36 233 37 451 28 346
1313 0.83307965960897401 1.8444991425704818 -0.33348697501452873 197 197 195 1.5158495662774585 32 410 34 401 36 238 28 495
1616 -0.29657603028442914 3.1558656904324089 -0.39973805069530188 50 60 95 0.27418349896840932 14 336 16 338
3020 15.922621285901768 13.955714633447332 -37.938056298217582 15 19 18 0.67115925756064687 76 373 77 311 47 396 51 368 54 213
1314 0.82892872118321193 1.9055784285528896 -0.28950467175258221 196 196 201 0.76890344555809265 32 383 34 406 36 243 37 366 28 253 33 370
1315 0.83058860172340232 1.9660237371131482 -0.25796547742289833 198 198 202 0.19818135086630284 32 421 34 408 36 247
1316 0.81880623591389023 2.0014068982864113 -0.19829175763644488 91 92 97 0.33433482312625779 32 423 34 410 36 249 37 460 28 363 33 261
1318 0.83161079390612203 2.0278508340308186 -0.22768196234855267 195 194 199 0.30800295417721335 32 425 34 413 36 341 37 368 28 367
2646 14.179988582048454 11.188845534295487 -27.442120285266626 34 34 47 0.13555816608223503 48 321 49 276 50 286
1319 0.8194908284566409 2.0633283952109633 -0.16843137013292236 17 14 44 0.25294836353133332 32 427 34 415 36 152 37 275 28 257 33 288
1320 0.79337362457326088 2.0465765584102225 -0.033750043575057467 169 174 177 0.36953456288890296 32 428 34 416 64 316 36 154 37 374 28 165 60 171 62 307
2139 -0.59756545399733962 1.2803934648449293 -0.45826149487193191 186 183 183 0.372568822280616 11 94 15 82 10 104 8 126 4 232 7 149 13 158 6 281 5 325 3 318 1 266 2 260
3019 17.098004641533631 14.517670152257208 -39.624086394522209 9 11 11 0.44385390043525907 51 369 47 395
1321 0.503655175105575 3.180610971076729 -0.14432408546001418 88 87 92 1.2546100604563588 32 225 34 445
1624 -0.61907511447627228 1.26869528740246 -0.8380091329524143 131 129 133 0.30715949055699276 27 324 14 462 12 408
2293 10.827605249478015 2.3014768721537964 -16.799997793860964 131 124 114 0.96197827216921405 4 257 3 181 6 238
1322 0.74292902099806013 3.0717741226482835 0.44119435672344115 30 40 68 1.0184471743799124 30 357 34 449
1323 0.88190597773035306 3.006601958526451 0.011941585164749384 10 34 82 2.6657089278736752 32 443 34 450 64 424
1327 0.84125098078896665 1.9785996458984199 -0.32348356846713616 132 134 132 0.37154898294929423 32 422 34 570 36 337 37 454 28 355
2291 1.0149042314128898 4.0070633815650334 1.7434851216951697 185 173 157 1.7963476896881714 13 348 3 171
1329 -0.30312509153603956 3.3085268709626194 -0.3131963009818492 164 151 142 2.0578584067160346 23 32 25 31 21 22 22 32 26 37 30 311 32 159 32 300 34 161 25 137 18 65 67 97 30 42
1696 -0.67795446360728795 1.3293017947874342 -0.70304359445031073 122 125 130 1.5635801554734041 16 129 12 130 9 154 15 241 11 227 10 233 8 333
2726 4.2692207429865663 13.592401428165703 -27.15123359594703 115 115 107 0.88131588716170139 50 78 51 135 77 110 76 107 54 165 47 83 46 86 44 76 45 74 43 77 42 73 39 47 74 81 72 42
1335 0.22774269025640625 0.92582760389588703 -0.68438589489276846 2 2 39 1.4778010165372935 70 4 64 2 60 1
1336 0.64465961175277831 0.95835141805132074 -0.37457418596212538 42 64 124 1.7704336911554788 34 0 64 3
1337 -2.7427368006150532 1.8112867561458599 -0.5088124129093009 161 127 82 1.5274068250673918 70 2 64 5
2245 0.80282057022301934 1.1529681877956772 -0.16882501478597958 157 157 157 0.18024980286909217 4 235 5 271 3 315
1338 0.52603187417687469 2.2247212176394187 -0.4441201106893608 18 34 73 1.4047369852113141 34 4 64 7
1343 0.66518331109721929 1.4819913770238098 -0.11609093172404934 141 142 150 0.33684902538961053 70 83 60 44
1344 -4.5739105282299795 1.5473471380338977 1.6173866559338261 185 186 168 0.71857189709837832 70 70 64 58
1345 -3.9128530673865347 2.1713202859247653 -0.44615701318310796 194 190 187 1.1214487246974734 70 39 64 60 60 34
1776 -0.59742969037016624 1.5016947213815044 -0.72940146479774759 56 56 69 1.2353100237520254 12 74 11 128 56 189 55 263 58 230
1346 0.075055655131576859 1.2185239998434056 0.070431040428144576 66 81 135 1.6983662427316513 34 506 64 77
2301 0.65211532017173623 2.5999878414946411 1.4277632795077648 174 162 148 0.17717095297152671 6 306 3 278 2 249
1349 0.80405617328845236 1.8778090711975803 -0.20300440357584973 183 186 186 0.42509551763585535 70 244 64 113 60 78
1780 2.6749582780404726 2.4775004953417405 1.3890172063529271 187 175 150 0.78049542104258951 9 127 11 200 56 136
2806 0.3870049408070903 0.97154643362465076 -0.83362494270472176 161 174 209 0.41609625694100272 50 310 77 287 74 174
1351 -6.3433801535824346 2.1988158384566159 3.5093632145911142 199 196 179 0.28986860662330421 70 216 64 176
1352 0.69286568409816707 0.96138441554661314 -0.81364545119380904 42 40 94 0.9658163321562595 70 326 64 189 60 94 63 163
1353 0.84121714741493425 1.0000176975140869 -0.29507971027957158 67 73 85 1.0281801731344054 34 209 70 455 64 193 36 106
1784 0.80071763323979417 2.7600026569099931 1.0263897594174503 197 181 158 0.4772572949252698 9 134 11 270 15 148 10 142 55 198
1355 0.78782832869564057 1.65445215771389 -0.2506228124492289 21 24 67 0.74600178289048991 34 92 64 206 37 143
1357 -0.17004595425200417 0.43173346001110985 -0.23256314347497581 166 162 151 1.8534452782325479 32 101 64 228
1788 -0.6701742447933362 1.3827450786828197 -0.73167227298154502 76 71 68 0.54451551476265514 9 192 11 280 15 363 10 397
1359 0.8333281242260987 1.7376996066794157 -0.38754141313809726 139 137 171 1.2177053527193058 70 492 64 238 36 350 34 548 60 147
1360 0.79447164550269955 0.93410911865382795 -0.34765416090160783 30 51 99 0.68411134484866276 34 356 64 254
1569 0.79970887600730201 0.92507026583761764 -0.25225922496298214 99 102 107 0.87298738373344942 37 476 33 282
1364 0.81186169971071875 2.047755450480901 -0.10094761619015058 58 63 83 1.0715289223967082 34 124 70 368 64 297 36 67 28 104 36 129 60 116
1373 0.78612650612641188 1.6717949190964398 -0.21320917618493707 81 85 112 0.55398022660333801 70 354 64 207 36 446
1740 -0.67974327453599603 1.3410099280766197 -0.58909553611340126 97 98 98 0.94711971812064211 12 229 9 114 11 175 15 415
2082 0.47811888670430891 1.012243795235382 -0.24983892959481341 142 148 172 0.56669488390653344 8 286 13 378 4 342
1376 0.8393633252221 2.081449615359682 -0.20558026436707344 204 207 200 0.68111704074671819 64 89 36 27 70 198 28 22 60 53
1377 0.75463878790112382 1.2207711490108213 -0.19201037004022592 77 88 116 1.03701177776871 64 136 28 17
1680 -0.60600992966344236 1.5081047575262914 -0.70577527781498806 63 69 84 0.15815688184382123 16 432 9 329
2205 8.1734397057171773 3.9227989708714728 -21.83144632657546 140 139 136 0.90573328381722118 4 24 6 34 5 30 49 78
1381 0.79408072526675466 0.87675466417930736 -0.21817281952621567 99 119 189 1.3667448963856934 34 64 36 55 28 47
1684 -0.6668651466569937 1.3726260221055007 -0.6738731991319088 154 150 141 1.5822127999036453 16 17 12 21 58 114 56 75
2710 14.427475262520236 15.765591172480974 -36.908975915937951 17 16 12 0.61612219278464531 48 37 50 36 51 43 77 45 76 52 54 49 47 62
1383 0.82936030788596082 1.2522895013276609 -0.33637550444820774 82 93 115 0.37178208587466105 34 269 36 60
1384 0.77961250636984636 1.2844424945282156 -0.25825414583491862 117 129 151 0.96440638545574009 34 517 37 520
2203 7.4433178619929947 2.9125578165510486 -19.072964058611976 228 230 227 0.98970874188676095 4 15 5 23 3 27 1 27 2 33 48 41 50 42 51 62 77 48 76 73
1386 0.82968195243825571 2.0968216797141408 -0.17830448047476186 204 206 202 0.62144436339886255 34 115 36 98 37 114 28 97 60 153 33 139 62 237 63 213
1392 0.84855083495454375 1.3706824601937149 -0.36491954206206956 74 86 110 1.3803306577308585 34 527 36 138
1393 0.82623617668967453 2.0085476052141837 -0.21819072060641923 180 178 192 0.21284133899116564 34 239 36 148 37 269
1760 -0.71024303941148903 1.165203656690643 -0.53624847598911041 120 122 135 1.3177493062161618 12 255 9 335 11 326
1394 0.79478188565273433 2.0456331629723543 -0.049721307890326201 24 22 81 1.0004513403294146 34 439 36 153 28 370
2285 11.009653821848032 0.45237941242916641 -14.68755092283032 119 111 100 0.90315309909696517 4 65 6 70 3 102 48 106 50 137
1396 0.80889915077342023 0.97129901569649513 -0.44691196297513824 25 33 52 1.71953869848124 34 358 36 175 28 271
1397 0.78513221330891592 1.0677076192433836 -0.35901407436670379 97 107 132 3.1533127074701519 34 167 36 192 37 492
1764 -0.57267271485224525 1.5017871845574293 -0.52035997012181645 8 23 54 1.3541295026406739 9 4 11 5
2790 1.3136561055987117 8.3978901250680966 -17.880335055611372 0 2 7 1.8717080500487511 50 117 51 253 77 169 44 119 45 107 45 461 43 76 43 474 39 56 39 387 40 52 41 72 35 64
1399 0.76130604059967399 1.074455992306766 -0.17683330459465041 180 182 192 2.0999740313177124 36 195 37 161
1400 0.7712041232693555 1.1649576726723003 -0.19313976884309031 113 120 138 2.1422301537210386 34 345 36 202 37 153
2283 0.77892050307443883 2.4976331730518488 1.6796460744328612 169 159 142 0.30897102285509159 5 78 3 94 1 96 2 81 48 131 52 170 49 126 50 180 51 384 77 251 76 138 47 454 46 338 42 454 39 216 40 162
1401 0.84574871196487977 1.1786004110632344 -0.23778206229112836 90 98 117 1.096411864310844 34 347 36 204
1768 0.69696315929149644 0.86175703804598258 -0.25851697711899596 114 130 190 1.3138591593880704 9 71 11 41 15 31 10 35 8 42 7 39 4 188
1402 0.8099842687178076 1.2466569767723195 -0.41013939679984829 101 108 124 0.70210816856574665 34 264 36 205 28 444
1405 0.83464300895112442 1.3012430722529607 -0.25307944762441703 89 96 124 0.31637686945315646 34 522 36 220
1772 -0.6146220205580567 1.0625424746686851 -0.50329637054027987 166 175 224 1.0329209495095206 9 139 16 169 11 84
1407 0.81430076898254111 1.8904103116082309 -0.24565824113820306 210 211 206 1.1560391737991511 34 404 36 241 28 353 37 369 33 372
1408 0.83497619546740387 1.9720402978545555 -0.27257811382200914 204 204 205 0.1943901537124445 34 409 36 248 37 455 28 356
1553 0.74718988004306763 1.1850980631356864 -0.040053694441543712 161 161 173 0.6952998566552151 37 175 31 136
1411 0.82778818485291172 1.2312836727808412 -0.44013887959100884 64 72 93 1.2226085417465467 34 342 36 282 60 141 63 278
1412 0.8106569147093533 0.90424565546521984 -0.26769495466475557 22 35 87 0.28418530217371013 34 473 36 303 28 289
1413 0.81728247458888259 0.9832607734265264 -0.48314445815582036 25 36 69 1.6599407943185558 34 481 36 307 28 294
2583 -0.35945836650856816 0.98738988193515587 -0.75187905876695615 55 63 102 0.87592431255739667 53 43 55 40 56 28
1414 0.78965651643550439 1.3388613528761206 -0.077411509373945489 97 108 148 1.9600455669678223 34 532 36 325 28 129 63 138
1415 0.79936520803149702 1.6755565584647678 -0.25558474876147841 197 201 231 0.69585485554233129 34 540 36 329 28 345
1416 0.79518569919847781 1.6901790546064706 -0.23300391434816636 199 200 222 0.70376501484956899 34 543 36 330 28 489
1419 0.82287435430297984 1.8312124683797022 -0.27072127634434467 130 131 135 1.3906555861316336 34 561 36 335 37 362 32 587
2072 -0.54375445259257649 1.2987231786818236 -0.41210651014773347 171 171 184 0.20363390200365822 8 184 13 244
1420 0.84054026798984416 1.9131375179197061 -0.34944773571365995 131 131 132 0.28336449903532707 34 405 36 336 37 453 28 352
1565 0.73630315045096262 1.0690418224785005 -0.4084778261086337 139 138 142 1.9572531547086474 28 213 33 244
1422 0.84336439993215662 2.0407098164913107 -0.29794934187499111 135 135 135 0.38737083137821221 34 576 36 340 37 458 28 362
1424 0.73443297660428608 1.2916887174777842 -0.099600926345024515 133 136 149 1.6255336515214869 34 420 36 391 37 24 33 15
1633 -0.61781456513495137 1.7293328665638643 -0.3027848654290381 0 0 0 0.85761907269454862 14 250 27 11
1427 0.81552149904557403 1.7220285531521944 -0.32882626404198423 206 210 245 1.5427748293743635 34 544 36 456 37 144 28 482 28 485 33 135 41 361 31 137 68 323
1428 0.8340825971810647 1.746810395709852 -0.36345822224666435 9 10 66 0.51863460927439564 34 550 36 461 28 348 33 357
1637 -0.58393874945830226 1.4088548704534052 -0.8100831865368876 8 30 67 0.6592934714730766 14 56 16 68 12 68
1429 0.80592847745259022 2.0004215834910153 -0.1160035213150265 205 207 209 1.2136923944256135 34 575 36 486 37 462 28 368
1641 -0.28960307522583806 3.2308649137980607 -0.23936030928619254 36 63 108 1.8647219422483539 14 254 16 106 12 76 9 68 58 329
1435 0.87715311108545702 1.5062106930508601 -0.73915450219585355 148 147 143 0.91651915804344575 32 117 37 78
1436 0.80252294038894856 1.3202188660485714 -0.10414544603946091 181 183 184 0.88747166902848951 37 83 33 109 62 234 31 120 40 325 63 208
1645 -0.61243428778050868 1.3789493633748804 -0.47147066025916506 152 152 146 0.49486578435546091 14 184 16 151 12 101
1440 0.76497729448937901 0.9326703638051419 -0.20902437770323626 144 145 173 0.23608636207675165 37 122 33 145
1585 -0.63595415008343281 1.5090881832534733 -0.38692426433677524 223 222 212 3.0822385633902361 27 14 14 20
1442 0.73725357318274565 1.3412558357799902 -0.13983658928084117 138 146 157 1.3290543699127551 32 564 28 341 37 177
2269 -0.1555127731723191 2.5190389909701709 1.7775824102604927 168 158 146 0.18802014184798865 6 183 5 171 3 161 1 259 2 238
1448 0.8334133165194485 2.029084968169645 -0.26017813759826264 142 140 143 0.40305822741123976 36 149 37 268 28 155 60 170 33 194
1593 -0.54282090652843151 1.313765495269767 -1.0647330584907586 123 126 133 0.38881590024114587 27 200 14 135 16 146 12 118 9 141 15 204 58 308
2267 0.58751567398865312 1.3700078466143493 -0.1288901443149183 8 25 61 0.88921479790570601 13 86 4 157 6 89 5 88 11 118 15 65 10 63 8 53 7 84 3 111 1 127 2 183 48 272 52 224 49 168 50 232 77 134 51 136
1451 0.80132308283737519 1.2097671730146153 -0.33176936353754044 94 103 120 1.6312346436292948 36 112 37 336
2104 0.095852460275713286 1.284433417580038 -0.24910562529208827 94 105 127 0.39459045714007951 13 151 4 162 6 122 5 124 3 172 1 178
1452 0.78778589265939303 1.236357736105574 -0.27823193828209464 61 72 92 1.2226173620471941 36 376 37 344
1597 0.9271389013464546 1.2695100608718335 -0.88095388631078386 188 184 183 1.4814948786188862 20 164 14 173
1453 0.82342228413480423 1.7996611095395336 -0.3114577267193479 98 94 111 0.22848105717853928 36 236 37 361 28 248 33 293
1756 -0.65113712445550176 1.3455903123654014 -0.56763362612360069 151 150 148 0.78837724165883882 14 310 9 306 11 311
2098 -0.30269646518352494 2.6396859005430944 1.4844718431342621 163 153 143 0.29666557281079942 13 118 4 146 5 168 3 160 1 135 2 136
1456 0.841115745165815 1.5371299828215599 -0.71592693403572027 188 186 189 2.4911756641093721 36 431 37 436
1457 0.83073932285570729 2.0170536856578667 -0.23739728821696185 84 82 93 0.40241462830431224 36 250 37 459 28 364
1458 0.80062340743345117 1.9905662093618286 -0.098217896135580032 122 120 123 0.50896275915712696 36 483 37 463 28 369
1461 0.74149523264898598 1.1905817690390108 -0.18096807621314506 211 217 234 1.1585338601822923 34 152 37 524
2567 -0.12505777241254964 1.1354288766949163 -1.1845474037849757 79 93 140 1.3284094358172052 7 346 55 367
1462 0.82064150334511821 1.9755627580888775 -0.21902186553616967 166 167 165 2.731098384919977 32 218 34 197 34 571 36 339 37 457 28 103 28 360 33 374 36 127
1466 0.76877020527717599 1.3865910460710049 -0.12362387327557524 8 39 94 2.0808136230873191 37 33 28 26 33 48 63 104
1467 0.94210371106983304 1.1571796443533748 -0.48747226317692505 105 115 140 0.35767781162544038 37 75 28 36 33 71
2056 -0.33869988516706712 1.0551529863257996 -0.46693804820362933 60 69 89 0.51552214312306011 7 51 13 51 4 70
1469 0.69531704274273931 1.3089648227987949 -0.58915748640700216 0 0 0 1.3301168899814684 36 145 37 56
2050 0.83980221993436299 2.7348314659768374 0.49819390176046069 171 159 145 1.742980588717399 7 15 13 17 6 23 5 29
1472 0.95352522860222932 2.464005777092146 -0.33543441360650039 143 129 120 0.75061872319058665 37 110 28 61 33 86
2048 1.6780547466762539 2.0237731607412592 -0.27016100826372247 182 174 153 1.5508064171790634 7 315 13 9
1475 0.83308392036402812 1.1607902894403588 -0.72214744967847477 144 149 161 1.8129448171441707 32 129 36 9 28 87
1485 0.95002303630608831 1.1201821896613295 -0.54496194517892038 143 146 161 0.42162786201706515 37 242 28 174
1492 0.79069398619726106 1.6715226730611259 -0.20249291343002634 164 167 186 0.82242288472460345 34 541 36 232 28 246 33 267
1701 -0.49563531253537751 1.4400766925245663 -1.1929092695709038 112 114 125 0.27839794405208812 16 137 12 178 11 250
2058 4.6175877109034307 1.413477398981267 -1.4916670879032632 14 20 54 0.82203269188051387 7 67 13 61 52 55 49 111 53 58 55 52 56 40
1493 0.83633389543404768 1.1068910826272484 -0.19917947550029561 88 91 108 0.60040444048012065 37 506 28 263 33 338
2727 -0.63753791496541501 1.1111684186473478 -0.61695684849129973 31 52 117 0.29686453646733385 50 98 51 144 77 128 54 196
1494 0.82595136686737569 1.047054715322957 -0.63617352389196313 27 41 70 0.54159837650001108 36 92 28 276
1496 0.82894629379204554 1.0944292298827434 -0.71346708361631905 57 64 82 1.1968834754397046 32 100 36 315 28 303 37 419
1705 -0.57062309996069271 1.3241912538672593 -1.0203180502043112 141 137 134 0.69343380568879864 16 260 12 208 56 322 58 317 57 404
2873 3.5462276776368999 3.6138710861001666 -20.67206990896511 202 202 204 1.2904494752580165 50 331 76 305 39 323
1499 0.81073482618787074 1.2776905754219843 -0.1421935386130336 194 206 218 1.7885728193845503 36 317 37 440 28 328 33 369
2216 -0.091580020473614104 2.3946016928359937 2.0812671252354367 163 156 140 0.47385829680839514 6 85 5 103 3 97 1 79 2 88 48 142 52 131 50 235 51 272 77 253 54 340 46 344 39 182
2866 -2.6956494767953005 2.8686338180704554 -17.557731798119807 147 149 140 0.75856455820294777 51 321 76 233 54 468 47 462 46 456 45 480 42 371 39 324 74 287 40 202
1500 0.81732634583811714 1.1409024395562022 -0.20698366116197453 161 164 181 0.038827609288248216 37 545 28 332
1709 -0.70543520974953755 1.1846996630258133 -0.5227176876434676 162 165 165 0.30317651111028032 16 459 12 258 9 219 11 332
1502 0.75803442257011855 1.1704708448506167 -0.27324087007388831 84 92 112 2.4620155732494173 36 78 28 440 33 123
1504 0.77265637909693996 1.3055991533209452 -0.20336237980322666 89 101 125 0.46634695002530613 37 437 28 466 60 41
1649 -0.59692024298339774 1.5325629815703024 -0.7068023031049584 99 107 120 1.1807470724149245 14 247 16 158 12 107 11 115 15 144 10 137 8 197
2080 -0.039405994313933504 2.7583838594806003 1.1429222570150914 157 148 138 0.32602063273479559 7 254 13 342 4 332
1508 0.7848081560045661 1.5416083566610703 -0.20994102403688533 1 2 21 1.5124288906281307 32 3 34 1 37 7 36 29
1653 -0.59507449245657418 1.4050236265237395 -0.75680530061171902 85 87 102 0.30629297195096938 14 200 16 213 12 143 9 298
1509 0.46205525674905701 1.1818148645952431 -0.22305138137070016 221 220 218 1.6002743780630941 37 0 28 2 33 0
2679 -0.5981373781985011 1.40153743568045 -1.0078696578881297 166 155 146 0.74532776521110355 27 42 14 51 16 55 12 46 9 55 11 62 56 135 52 213 53 160 55 136 58 127 57 158 61 322
1510 0.83368594271719731 1.0516262613619662 -0.26203444942674842 60 71 103 0.83633040824498828 37 23 28 12 33 23
1512 0.85065547812521347 1.011108585096423 -0.49795080511539097 111 113 128 0.67174716329212758 37 152 28 94 62 218
1657 -0.57991235088230531 1.4674401783498736 -1.0681612705196184 63 66 77 0.33783018938863468 27 356 16 240 12 219 9 227
1513 0.92709198658472081 1.0954767571581132 -0.59726991717013977 81 84 102 0.057611223425727179 37 233 28 100
1515 0.85129312243683752 0.98355690261762219 -0.41802828147898813 81 87 99 0.79639931263767527 37 223 28 185 62 223
2168 0.74708088310943255 1.0545726679205598 -0.15312107846628001 125 130 147 0.67683083379088393 4 305 6 126 5 217 3 197 1 110
1661 -0.6061189492749709 1.2118477516161335 -0.75795963971374958 69 68 73 0.29492653938855057 27 328 16 264 12 345
1517 0.88719408017438095 1.2384660951259618 -0.36936029911907703 77 85 106 0.036385406306433152 37 341 28 224
2162 0.72877972191909979 0.98495422991589254 -0.19979073355208807 48 57 80 0.31734904269301623 4 55 6 74 3 70 1 75 2 69
1518 0.84129016483385366 0.97347113503510274 -0.44867809650568813 29 39 70 0.37594778669464696 37 407 28 299
1520 -1.5062050266495459 1.9298491170227496 -1.0635498990708043 1 12 66 1.7593174953604036 64 31 60 22
1601 -0.6607532616936671 1.3109333316317964 -0.7606214936793857 70 70 72 0.32007263514888867 27 355 14 213 16 254
2096 -0.4755197729288102 1.6658988484006574 -0.73534471480331598 0 4 33 0.63972409077961712 13 64 4 117 6 157
2090 0.63142727096503204 1.0139208999747402 -0.23513043709184944 75 82 111 0.22872994373548561 13 85 4 74 6 75 5 86 3 71 1 76
1525 1.4037448171182449 2.1115390684986832 -0.52846795959438564 102 93 84 0.15182718885224308 64 71 60 58
2631 9.2380047245589285 0.49148506896145944 -14.684907556313981 134 128 114 0.24391030479272013 3 130 48 175 50 186 1 108 2 109 6 139
1526 0.60269577960038578 0.91654140461956746 -0.71709006231745009 211 214 215 0.89970230479805335 64 130 60 69 63 94
1528 0.86647290922954401 1.1027593465162813 -0.2827430505283467 79 87 106 0.031978166834996047 64 147 60 83
1609 -0.62193810936345595 1.1979939202465677 -0.73509661104598756 99 99 101 0.34607654153417422 27 503 14 277 16 262
1530 0.8278533882633583 1.7235629884419659 -0.31352524431435325 24 21 64 0.28810778334142911 64 208 60 111 63 136
1531 0.90750653388933988 1.9453331395648541 -0.58659672523374107 37 48 76 1.6391006387336124 34 563 60 128 63 114
2120 0.73275176413719822 1.041472577628443 -0.19432191075569097 90 95 113 0.25591454212558917 13 307 4 229 6 214 5 330 3 196 1 171 2 266
1536 0.7658818026397104 1.0317188154790067 -0.38496471571834751 54 66 89 0.72388624075405861 37 127 60 204
3005 -0.003704552326587938 1.3347491592241509 -16.283274175209833 105 102 96 0.018340779099636766 51 207 47 296
1539 0.80556148615007384 0.94525612875128096 -0.35539582101612049 93 101 126 0.87924473959704541 34 308 36 135 28 295 60 121 70 449 64 372
1541 -3.9704298773248139 2.1458650042831855 -0.32528498871968259 175 140 103 0.62549404504594908 70 117 60 55 28 57
1543 -0.03948832431279594 3.2603987723659782 -0.53220227030046974 110 107 102 0.2767574384024627 36 100 60 163
2486 -0.49097825518218863 1.7561870399544197 -0.86889904382464944 160 151 142 2.2304855385833737 5 118 49 116
1544 0.88758201762474243 1.0693477561774554 -0.59766402225540671 72 80 102 0.27669779365529179 64 384 60 174
1545 0.79972458877321795 1.2189581364666291 -0.17325585265047821 81 82 90 1.5320661280507797 37 14 33 14
1548 0.70609905946141482 0.87457302845581875 -0.29677453998124181 85 105 174 0.91795035205553255 28 46 33 61 37 62
1549 0.11908362266658386 1.0704238416194014 -0.35591935842051564 135 139 156 1.0198800752493657 37 125 33 74 31 75
1550 0.67869636186241122 0.89565539505249092 -0.17679262736594381 164 165 169 0.2020787377757641 28 24 33 76
1551 0.94023531063966637 3.0547246727269126 -0.045624362582496601 36 50 80 0.70804477347095729 33 88 68 114 37 47 62 75 63 71
1552 -4.7767633980478923 2.687623457619452 -8.6213630018678789 211 198 164 0.9719821545036722 37 104 33 120 35 137 41 66
2957 4.7675602222166953 0.84464069336472369 -15.885862193725066 186 185 180 0.43474764904541063 54 64 47 80 46 61 44 82
1554 0.74713882398667464 1.284286169663762 -0.12812123271646195 210 209 205 1.9216561526106355 28 139 37 139 33 131
1559 0.64815984747274957 1.277393918269935 -0.12094427519830335 209 205 202 0.11654796755176365 37 176 33 181
2438 4.6648657458752654 1.3483820250531342 -1.5799258941396479 170 167 160 0.43259547405758914 7 127 52 115 49 205 53 177 56 116
2955 -0.76725165664271455 2.3305976676431386 2.2883514765283905 198 188 176 0.01905242039900612 54 54 47 74
1562 -5.6856211734842166 1.5878106722874943 -6.5618059428055195 221 206 167 0.47957555857747308 37 168 33 200 63 125 68 125
1567 0.81127249304955051 1.7738543285569532 -0.25646629419043943 122 113 97 0.40718692062649869 28 143 31 183 33 271
1568 0.74171681830141467 0.97564478740105964 -0.4212874491386544 142 144 149 0.79534227426754867 28 96 33 277
2909 4.1018115022695634 0.36232775711563481 -15.535757164722874 172 172 170 0.83198719966800549 51 109 54 232 47 292
1570 0.51777948539668806 1.0452856020756802 -0.21978277070676458 153 153 159 0.1257888718295426 37 488 33 329
3270 1.0279084418060163 2.1646290632460645 0.024095196995544573 135 132 127 1.8970443367731975 46 76 45 87 41 143 40 130
1572 0.76491237149388991 1.4000192853588425 -0.25491742377082444 130 123 115 0.64715090167694878 37 355 33 354
3265 -2.0993345160703387 4.4524667443605814 -19.473491881144955 135 197 238 0.83620080350745774 76 29 77 21 45 23
1575 0.81056037940611814 2.0045477804950145 -0.17057296848625764 194 194 195 1.910657736089955 32 424 34 411 28 158 33 392 29 293 30 379 34 287 36 150
2390 9.9336032069899147 0.27065233152235163 -14.96709571812136 129 121 108 1.4734465040166025 3 220 48 99 50 135
3274 0.59085826636275518 1.568966976816156 3.976919707236374 192 185 169 0.26234078713530623 44 127 45 113
2907 14.930275351365935 13.596957524690355 -36.573380553669338 22 27 23 0.61881188829990164 50 112 76 142 54 212 47 162
1576 0.81577632564332658 1.7208947635266201 -0.40394527116290813 5 5 78 1.6891442668277374 34 120 36 70 37 106 60 109 33 110 60 145 63 223
1577 0.83276664206237561 1.9981420794476175 -0.24983562051061806 203 204 199 1.9511904960229358 32 222 34 199 28 153 33 193 34 200 36 128
1578 0.83079732828092145 1.327209319031637 -0.7244206626672165 129 128 123 3.3146652093228712 28 169 33 163
1583 -0.60495942492577315 1.3476413549297648 -0.49498495435999712 189 182 174 0.37615846307367368 27 12 14 16 16 6
1584 -0.56550202546152173 1.4482609589891999 -0.79055809736512261 118 117 115 1.3992945086094439 27 21 14 17 16 19 12 20
2989 -0.24468423610922252 8.8255483467061957 -25.667265800525644 169 175 184 1.2598747013105105 51 241 54 219 77 119 47 225 77 258 44 309 39 149 72 106 69 201
1586 -0.52745723485577378 1.6253363353145791 -0.54195835780087076 0 7 33 0.69280205051129529 27 32 14 28 16 27 12 38
2268 -0.58503798961052689 1.1186715507293303 -0.47897822990796202 105 104 110 2.2432990738103622 15 103 10 93 8 141 7 166 13 166 4 354 5 339 4 132 6 344 3 335 1 273 2 270 52 293
3281 0.79483184522135875 -0.71602503276598006 -10.639099182641345 141 136 130 0.045967619112124866 46 228 45 200
1591 -0.62249127536661508 1.4864830881844848 -1.0160476371633154 18 29 65 2.4534755631326917 27 136 14 65 12 364 16 281
2470 -0.63863037777005527 1.1096327458701132 -0.59775762568286195 23 38 75 0.75145715669133695 52 19 49 24 53 18 55 13
1594 -0.49276046038417953 1.4192974433228638 -1.2094296680880052 131 126 133 0.72791189486483765 27 197 14 138 16 187
1599 -0.65754122004179283 1.3716744136380508 -0.78836902714456958 74 77 81 1.2216111150739219 20 272 27 220 16 276 12 223 15 292 8 346
1600 -0.68997354920988163 1.2969233024893407 -0.65705876221219484 74 74 84 0.23427781092334132 27 268 14 207 16 204
1604 -0.4223244537891736 1.3622191652284399 -1.2384883740684667 123 135 182 1.0717593258343785 27 341 14 227 16 356 12 321
1605 -0.64608877649995644 1.1663033995515666 -0.65299977373093387 78 78 83 0.39109157194876665 27 252 14 231 16 188
1607 -0.61490176409444108 1.1792988311575994 -0.7473406958400628 90 93 109 0.36592050421349415 27 480 14 265 16 253
3067 -2.7984398111028059 1.5206174877950658 -16.281383386245796 121 117 106 0.39467538999539109 47 114 54 121 46 132 44 168 45 98 43 84 42 104 39 77
1608 -0.51040097210516888 1.4124921807330164 -1.1746981576712059 122 121 133 0.53068903501785569 27 302 14 275 16 269 12 385
1610 -0.5953785225462469 1.3576946715877287 -0.98756747262567524 149 140 123 0.21031918070460276 27 397 14 281 16 232 12 213
1613 -0.68005781883083083 1.3310898125958912 -0.67804428233530833 66 65 70 2.5168291011251105 27 528 14 303 9 156 11 226 15 289
1615 -0.60169159863946309 1.4614101207970067 -0.66487393679354434 91 92 107 0.87915662823548657 27 485 14 319 16 172 12 276
1620 -0.58449451874542024 1.4657586966559064 -0.78175270946349684 78 78 86 0.81705165319493067 27 371 14 403 16 375 12 404
1621 -0.67984394536794346 1.3122918348953896 -0.6740477580492954 114 114 124 1.0021402358567475 27 360 14 431 12 329 15 239 8 304 7 272
1622 -0.40790338309432783 3.2438569402638664 -0.04281051533974492 133 123 111 0.69357809856292119 27 444 14 456 12 300 9 249 15 422
2343 0.69141860691176837 2.6477930888601868 1.3029553894450412 199 187 175 0.017870994740523907 3 272 1 238
1629 -0.63695129079995438 1.2181962547135332 -0.83589008321424452 49 57 94 1.5342922777053547 20 352 27 470 14 480
1632 -0.4792549805093182 1.3221159667204425 -1.1924515993876081 28 44 95 1.2803946001946529 14 3 27 7 16 10 12 12
2973 0.68239626053358515 1.9692314151144479 3.0395599489021778 180 174 162 0.46033915559417765 54 106 47 133 46 163 44 194 45 139 43 108
1634 -0.38889862281566873 3.2089573310291994 0.10486495235751002 138 128 116 1.1379781702177854 14 61 16 24 12 29 56 71 58 115 57 94
2454 0.76684724538425642 1.2693952092913316 -0.10984758692967729 199 199 199 0.15176768102363511 48 269 52 288 49 297
1640 -0.56932796990650125 1.4588397600824872 -1.0982248878498253 65 71 85 0.47828661156554297 14 82 16 79 12 91 9 79
1644 -0.58709764363376105 1.4079517785635594 -1.0755389306009708 158 154 151 0.2494250654516387 14 125 16 120 12 127 9 89 11 152
1647 -0.58831815747102123 1.5045982630481121 -0.69017467717770209 109 116 129 0.91881738891386266 14 182 27 578 16 153 12 105 9 100 11 103 15 110 8 192 13 250 52 310
1648 -0.60335433807536254 1.3043290543415038 -0.9260533595010032 170 161 144 1.8766177470924574 27 253 16 157 9 103 11 148 15 90
3053 -4.1392314647052979 0.38837235460029307 -14.162090631672982 86 82 73 0.43675583474819418 47 53 46 68 45 55 43 51 42 41 39 40
1650 -0.63299614064369614 1.1119139802308118 -0.5941640299581854 20 33 70 1.2318777303639039 14 239 16 170 12 167 11 209 15 213
