# 3D point list with one line of data per point:
#   POINT3D_ID, X, Y, Z, R, G, B, ERROR, TRACK[] as (IMAGE_ID, POINT2D_IDX)
# Number of points: 388, mean track length: 3.7290871995032377
11267 2.7700970280354764 -0.47595344564609227 2.536947907134985 72 101 99 0.61635856129112043 22 67 24 82
11186 2.596152192196306 -0.16010525144011153 2.786079705341868 160 87 101 0.19101726877384678 25 590 20 287 22 418 27 1239
11189 2.8810261461565361 -0.59226173469906873 2.6609572461684401 85 108 102 2.3917686337634692 25 348 22 683
11780 2.6433199784432939 -0.018021733848736229 3.5568040044004117 36 55 49 0.095041401650823823 30 2077 29 1141
11191 2.5718970329972666 -0.45780980264378157 2.7018780495063379 78 51 40 1.9655597339750699 18 345 20 318 22 518
11790 2.0275601319632743 0.24253043969597191 3.179889824014885 118 110 107 0.150346368060432 30 1108 29 1198 31 1428
11193 2.8562128188952753 0.21661251697402745 2.720791410861005 135 156 100 0.49746326823779236 25 1210 20 334 22 502 27 1834
11198 10.465455483062023 -0.7400543219321889 1.2902552228219122 156 160 148 1.5084902029726182 18 336 20 439 22 681
11788 2.0054357842045158 1.2953690935376554 3.511428469590542 61 58 53 0.95468761013588177 30 1065 29 1194 31 1704 34 1319
11199 2.8528359472361773 -0.22178372545379371 3.1300060669662919 41 61 59 2.0985809059695311 25 2865 20 465 22 648
11347 2.1139013016322674 0.12506938977343932 3.5036181875206909 74 63 57 1.2841412184324676 24 249 27 770 31 2677 34 5465 33 4965
11202 2.8068648204183382 0.38525112113968135 2.9071405302159681 11 15 16 1.4908847252913862 18 563 20 473 22 839
11204 2.7947918154056173 0.36031350084716568 2.8997407882291908 54 58 61 0.21242076692881881 18 508 20 520 22 664
11860 1.3850459524959995 0.38794210181834471 2.5653632685772694 255 242 226 0.4464064494900094 30 1567 29 1806 31 1604 34 2324 33 3002
11557 1.6038626503073918 -0.10474586708543009 4.2343135604863873 229 200 164 1.9999579069566815 27 1344 34 5319
11207 2.7624470601338249 0.038803882215651349 3.7226003286296039 0 0 0 1.4283443147864721 18 40 25 94
11870 1.8632558230469258 0.098447735781369963 3.3270305545443919 144 147 140 2.3140860721430361 30 1214 29 1862 31 2426
11209 2.6249484242896659 -0.015347936273270045 3.5629595372196303 40 63 57 0.19704170764043052 20 266 22 229
11355 2.5941840531642302 -0.31983695405043233 2.7748172426883473 132 97 104 1.2049983723231079 24 793 30 3110 34 4737
11210 2.718281823569372 -0.054248226531227163 3.5384444201328251 0 0 0 0.25080660900371304 18 310 25 2918
11212 2.2060228197460527 0.08381833994993125 3.1980607266715491 211 146 140 0.13959840909043719 20 36 24 18
12588 1.4065417545018113 0.71923306407665166 0.81747678170699201 194 71 99 0.74607765250891767 31 2155 34 3799 33 4291
11214 1.5565569348815878 0.052213527488843642 3.7888371796462477 91 112 127 1.5476044958534316 20 19 22 23 24 35
12592 3.5000791573038734 4.4998923316878283 -4.8688297839626333 94 87 81 0.79074625162079393 29 2032 30 2369 31 2186 34 3852 31 3534 33 2893
11427 2.8754139600182862 1.5072405409927045 0.14477464235156892 121 123 120 0.37756723803886888 27 379 30 352 31 533 34 590
11218 2.4022973937489192 0.099510620707602276 3.3609815444571685 15 34 28 0.69682733434531774 20 80 22 70 24 121 27 192 30 190
11219 2.5488826622200005 -0.35148537035595184 2.6960421387611317 182 118 119 1.6012789442938444 20 75 24 161 27 283 30 338
12587 1.256932242974764 0.48530498660050297 1.1507682809847837 146 136 127 0.64779764677426277 29 2419 31 3249 34 3787 33 3815
11221 2.7667007375610524 -0.57602430553586093 2.5678229292076664 40 59 57 1.4413877352338036 20 109 22 103 27 239 30 448 29 535 31 511 34 613 33 671
11940 1.698281197032977 0.059626446276841542 3.4648801206710838 165 160 162 1.1623032432092999 30 2934 29 2617 34 5254 33 1596
11223 2.6238816719958384 0.045513005038162628 3.7121414422454388 85 97 97 1.2469332071958166 20 213 24 69
11230 2.8956367998576233 -0.19418538027186105 2.9418474336782356 0 13 15 1.6167690439696343 20 198 22 257 24 159 27 279
11948 3.0756028031872367 1.055212400541562 0.10209245054660458 46 50 50 0.89942278894484351 30 1951 29 2794 31 1216
11231 1.4851823696571032 -0.15367345356034715 3.5143283694098679 216 150 160 1.6523308331489908 25 1244 22 330 24 351 27 1176 30 2461 33 4877
11894 3.1132599262387668 -0.26212059374594948 2.8732171073091952 103 104 85 1.5686000577477861 30 3127 29 2037 33 2249 31 1553
11233 2.737024365958344 -0.052893523392351295 3.5376888630380012 43 66 60 0.36134473686088975 20 264 22 386
11235 2.6554087482611441 -0.027266914103106776 3.5973253470690385 40 61 56 0.099971752068157185 20 471 22 495
11236 2.5937415082532373 -0.21765825721924262 2.7795442412409113 185 99 108 1.0104458287845639 20 451 22 511 30 3128 31 1550 33 2872
11892 1.4847721342043714 0.93143674568741319 0.5134775260523663 190 38 76 0.50793469029469906 30 1747 29 2019 34 3810 33 4431 31 3567
11239 2.0165752132110755 -0.03842337311130626 3.455371617909174 91 76 63 1.2368530471899684 25 631 22 567
11902 2.086563685492473 0.2504733743595573 3.1814700002988197 160 151 144 0.43217366351423481 30 2078 29 2093 31 2429 34 2852 33 4933
11241 1.7605724002017653 0.065547281131370705 3.7595047579874872 200 169 140 0.21181729255702114 20 434 22 597
11242 1.4418193940945527 -0.079595415342850181 3.6100825292625194 218 185 178 1.4627777146767853 20 418 22 599 30 2941 33 4956
11246 2.5844838186697379 -0.19449663852596483 2.7951061512993713 120 70 68 0.42376632735102177 20 462 22 645 30 2373 27 1493
11846 1.6315450299751415 0.5974265800031392 1.9226672791373776 130 126 125 0.62663677295832798 30 1522 29 1754 31 3414
11249 1.4045812853934068 -0.17730716079762185 3.5545153006722585 199 180 174 1.7742550808937214 25 3125 22 736
11331 2.2245445164131548 0.25339558702218878 3.0986391147146155 65 49 50 1.4597758070573263 24 227 27 444 30 826
11250 1.4906080539521982 -0.20713181124944158 3.4768888981748223 87 63 58 2.7889586271240319 22 754 24 609 27 1530
11253 2.5539703440085737 -0.27010784777110386 2.7688153295923259 200 124 128 2.0293946396196905 25 67 24 50
11854 2.2267054656612788 0.34162011094184436 2.5890972346330567 205 164 143 0.98213134828290061 30 1093 29 1788 34 2751 33 4715
11257 2.7167326595520751 0.071080049551961164 3.7092972719172699 0 4 4 3.2648752121069209 20 211 22 183
11258 2.6090601241319376 -0.37362615283738071 2.8546213720301745 174 116 113 0.5329966014903893 20 308 22 367 30 967 34 1330
11259 3.030540724179672 -0.29872545511599624 2.9484855455783516 195 153 115 1.556915500043492 20 290 22 402
11852 1.6757774345924177 0.52933430241048418 2.2622936864071992 174 152 131 0.68992960894702593 30 2017 29 1782 31 3468 34 5326 33 4694
11263 2.7707927340318537 0.045412172939817398 2.7078043263847427 3 16 25 2.1595780603082773 22 33 24 38 27 40 30 66 29 56
12208 2.7028418051792613 0.010832917868258842 3.9230188611703931 209 179 143 0.026023679759801108 30 3054 34 2904
11265 2.7673443292251725 0.035545170376383516 3.3428515865189761 40 62 60 0.95971091975291101 22 39 24 72
12216 2.0419292185526139 -0.085698949322781645 4.142958873482832 106 73 54 1.7582509975224214 29 2449 31 2729 33 5023
11273 1.5389315432296913 0.088846134304722546 3.6481400968670878 167 139 116 1.591002514296602 22 173 24 142 27 327 31 571
11275 2.8045782510830075 0.18998359276414215 2.6544927751394001 139 167 106 1.9934951636875791 22 94 24 153 27 275 30 271 29 387 31 402 34 584 33 544
12220 1.6578867659243179 1.3615242600009227 3.4961726665025554 81 72 71 0.54376179929388901 29 1943 30 1698 31 2757 34 4538 33 5111
11277 2.299883843619797 0.21299854282042949 3.2113685805092196 164 119 115 1.1886444096042328 22 120 24 168 27 306 30 584 29 558 31 564 34 664 33 751
12675 1.4410287499547427 0.09500023497779117 3.6504793845078538 174 140 113 0.38992858275974412 27 987 34 5284 33 3139
11280 1.1297359494668713 -1.3352820816157378 4.0147496912336225 223 245 255 1.0722682830762853 22 73 24 189
12160 1.5381499950668498 1.4693977667998568 3.5518066451908687 17 16 12 0.91651846082563893 29 1239 31 1774 34 3134 33 1330
11281 2.8923007444137521 -0.27405919246475818 3.0886294810058326 82 109 104 1.3654018174693723 22 207 27 548 30 984
12164 1.4124451187277365 -0.12623277400785726 4.2875228078628673 230 200 162 2.2360064815926237 29 2357 31 1830 34 5333
11285 2.8079501160469031 0.85316320176570537 4.3654934451288971 34 41 49 1.9525549986253536 22 346 24 234
12168 2.5449633602830466 -0.27805270662792181 2.7386067867090738 127 127 125 1.3021088349829326 31 2019 34 4743
11289 2.6067480765104372 -0.15153634393482784 2.7248787491248714 157 109 109 1.6644064042215436 22 145 24 270 27 940 30 1102
11290 2.1220200851371867 0.076743447835050063 3.628306465514143 27 15 25 2.1089171065820951 22 740 27 996 30 1644
11292 2.5453814972608502 -0.46694013029411979 2.703122221207082 105 88 81 0.8427511788082851 24 332 27 477 30 677 29 653 31 885 34 1027 33 1213
12172 1.5882627876897562 -1.6806175160260493 4.5073966816617848 26 48 68 1.0498941436444471 30 774 31 2181
11293 2.7551369848738103 -0.083559813969389718 2.8102854352665001 90 65 68 1.2395071807237452 24 333 27 543 30 648 29 905 31 1360 34 1455 33 2272
11295 2.0924690380803455 0.21103640720569525 3.2816879314447061 64 53 59 1.4129262430219001 22 783 24 348 27 1181 31 2660
12112 1.7215524978598902 1.2758556048636915 3.4491706198583247 28 24 19 0.60941651346820291 29 1180 31 1248 34 1308 33 1379
11297 2.1258537053753108 0.21412858661668793 3.2724415785517489 41 28 33 0.62819756041415309 22 323 24 380 27 1017 30 1048 31 1432
11305 1.4833529726994075 0.1346555252616167 3.6425842930770305 175 144 126 2.0350939776321249 22 541 24 524
11306 1.6041095319339596 0.019218155915935817 3.5976308680123052 151 129 106 1.5319686980221308 24 34 30 38 29 46 31 52
11311 2.5655345024722709 0.40100244641270671 2.297869474025616 3 22 26 1.0632831127900941 24 76 27 122 30 244 31 231 34 225 33 212
12192 1.6147439147931602 1.294933503032087 3.3990251284260427 20 20 19 1.4113650708855574 29 2470 31 2476
11313 2.2836310423084765 0.27221206427076799 3.2339267685333057 120 102 102 1.9032261784815891 24 86 30 191 29 348 34 349
12725 1.9888705663454833 -0.20560920531585036 4.5232348669273517 15 15 13 2.5565890315458786 29 215 33 246
11322 1.5572687725231205 0.077866040642293896 3.6245796799044148 170 140 116 1.3699019507134049 24 96 27 261 29 221 31 240
11327 3.0296769711359142 -0.27536216837212157 2.8814232275895377 84 110 107 1.3997398909485146 24 271 27 375 30 348 29 281 31 460 33 413
12272 1.5846745549367021 1.2614788045699454 0.25725724500848457 138 0 40 0.3749623689174883 29 55 31 46 34 46 33 82
11329 1.6423344903285533 0.040179522189680753 3.5853242408143711 62 114 168 1.1027035912661161 24 198 27 436 30 853 29 972 31 980 34 1428 33 1340
11332 2.6306929172033526 -0.088069085868207816 3.5683151400539397 64 91 86 2.623152522698748 24 256 29 559 33 750
12276 1.4367930584184485 -0.22324130377076173 3.5610660264991161 231 205 193 0.33499678779073189 29 134 34 79 33 101
11333 2.6317596385806517 0.28840876499956647 2.327911175751471 72 101 97 0.96272945399904086 24 290 27 468 30 556 31 395 34 393 33 421
12280 2.2034637741265612 0.28785898311743308 3.0867856719176707 67 51 52 0.85558121597560299 31 180 34 97 33 185
11337 2.6165322147507246 0.32884155204156879 2.2994875116288296 40 61 64 1.3188753476374797 24 268 27 539 30 1104 29 1407 31 1367
12284 1.3733178544405023 0.45698723680431225 2.4091357775306834 211 198 189 0.8733726022771432 29 102 31 127 34 111 33 105
11341 2.124610455664397 0.10334341154637784 3.6220342407031572 68 58 59 1.9010617527384279 24 353 27 650 30 854 29 839 34 653 33 1105 33 4982
11342 2.6557984576356253 0.27420914238273492 2.3318342044245788 63 89 90 0.85830133664851294 24 335 27 701 30 988 29 907 31 1365 34 1464 33 1256
11343 2.6227796798194163 0.34684402168071976 2.2980028283516516 81 102 105 0.83585873649869968 24 392 27 704 30 1517 29 1408 31 1569 34 3914 33 2935
12739 5.8700061314396512 -1.535487709651473 -4.9936670721828316 107 96 92 0.94801130666924505 29 758 31 1049 33 802 34 853
12065 1.5177480477710406 1.370287864609516 3.6570700039689368 0 4 7 1.4232651740643558 29 539 31 865 34 2651
11344 2.817085308144283 0.24847720305099516 2.8041135639590453 17 33 33 1.6833480549543023 24 178 27 722 30 3264
11349 1.5031777909064139 -0.20369955272696699 3.4937117362806447 247 223 217 1.8063328676217807 24 237 27 801 30 1182 29 568 31 1414
11359 2.8234894677305711 0.2793303742947319 2.627226692990932 34 56 34 1.1820110376317128 22 428 24 338 27 1226 30 2193 29 2933 31 2345 34 2737
11360 2.7141109211919638 0.41590879872914888 2.394300187848136 28 45 53 1.3770730007270631 24 430 27 1227 31 2340
11364 1.8166804850698224 -0.2063052253048826 3.702799983531627 155 141 141 1.3450097794753324 22 781 27 1386
12184 1.3990613224504527 -0.36624347700973198 3.7689860108022124 184 165 151 0.63017974952078637 30 2920 31 2414
11369 1.4874737400740061 0.059151170627135652 3.6631552133604588 223 181 177 0.84145627952603319 24 580 27 1727 30 3414 31 2454
11370 1.8336830157977644 0.11987083797284169 3.5168114508222876 146 140 132 1.3560154219048195 22 592 27 1737 31 1665
12188 1.974011334352838 0.1736640129538056 3.3895287360524256 98 94 96 0.29309934457723119 29 2628 31 2436 34 5256 33 3124
11373 2.016196977883852 0.19527104697835052 3.3036314981146497 64 58 62 0.91892214612452183 22 851 27 1765
11379 9.7267054480974071 0.15293051841591204 -8.6730251173264481 40 50 60 1.2621716510981864 24 28 27 36 30 33
12260 4.2482985068502401 -0.054025618947792162 -8.5677132150527022 182 213 218 1.5828967523727555 29 2196 30 1511 31 1848 34 1854 33 869
11381 9.5354503376787463 1.1766380010469768 -6.7125965615814511 45 65 85 1.1347449753124312 24 277 27 230 30 318
12789 3.0000399370645918 -0.37199082916802434 3.020583783307679 89 96 78 0.7155001883126173 31 3309 33 2871
11386 8.8883548791994471 -0.18907811527049603 -5.2095610684233682 132 133 138 0.9539009003031298 24 241 27 566 30 1133
12268 2.8374171548680938 -0.097954589164428493 3.4613258674200713 58 78 69 1.9210891738401337 31 7 34 8 33 12
11389 2.9322923121342521 -0.56192336611677862 2.6682228087687925 84 97 88 2.1955202508383902 24 210 27 1879 29 2774 31 2141 33 3716
11391 1.6970933988954855 -0.7142591887219395 4.6395019112494005 26 32 32 0.27719048581302597 27 9 30 3
11392 1.8895290722017906 0.10497781400457024 3.5947034368673494 50 53 62 1.8329477234465532 30 37 29 45 34 50 33 45
11393 2.1060698053179894 0.14591938597086354 3.5608602988011682 61 61 69 1.6687999528803772 27 34 30 49 33 75
12560 1.0824444146278069 1.8217714858328282 3.0844588851017303 24 24 26 0.13747296859464467 31 2496 34 3040 33 5108
11395 2.0108429501367975 0.21424398780027734 3.23539803038175 90 83 81 2.1149405775363355 27 44 30 69 29 94
12053 1.638553711444134 0.19637675809386529 2.676839534816279 214 185 155 0.80296633541883666 30 565 31 780
11396 1.5495987466999672 0.03723454049612563 3.7980729470272583 58 108 156 0.62139871220604614 27 51 30 80 29 129 31 139 34 96 33 91
11400 2.8350782704569522 1.6517965986475593 0.25969782793635926 135 136 131 0.69765496153021123 30 100 29 123 31 176 34 184 33 178
11404 3.3256980797385975 1.0013304492225339 0.12751421194847579 153 148 142 0.28279634413283611 27 136 30 151 29 192 31 172
11406 2.6735767868293165 0.045343944637125953 3.3946304091682489 5 20 25 1.990972361671804 24 148 27 188 30 162
11408 3.0891207609658906 0.92278207593477046 -0.2358309908995021 99 103 106 0.75099043031201951 27 135 30 178 29 252 31 216 34 258 33 267
12133 3.2278084019924318 0.96985738786604547 0.094535288988470467 104 104 104 0.2272208986576669 30 1417 31 1524 33 2212
11412 3.0036403983839701 1.0389229635832442 0.040554167118526378 151 153 150 0.74497447052971333 27 137 29 248 31 220
12570 1.4018400881324171 1.6867535460640348 3.3664714307809596 28 32 35 0.45654087159964812 29 1974 34 3112 33 3297
11413 2.861820853268251 1.4402649688038376 0.066512443936040069 118 118 118 0.7595169580674147 27 144 30 207 29 243 31 224 34 228 33 213
12137 2.219570999592452 0.20294495712898536 2.9925942200414974 177 118 107 1.3152859026017465 29 1478 31 1618 33 2335 34 2350
11416 2.2482593878051778 0.63461161295238822 2.0379641054872923 33 32 32 1.0836906664646824 27 183 30 245 29 236 31 232 34 224 33 249
11418 2.7725193304851419 1.4432611024935618 0.076070222230360043 95 96 101 0.93714283089825245 27 173 30 259 29 282 31 303 34 387 33 414
12141 1.9967292494266009 0.22401500092829812 3.244032852322924 110 106 103 0.29706887307926333 30 1220 31 1657 34 2397 33 3120
11420 2.1650153579604341 0.35867899047872892 2.848344999788317 44 29 32 0.98066090828324526 27 299 30 279 29 267 31 282 34 261 33 310
11422 2.4007153551163358 0.43761985817187804 2.5872061873500485 16 32 32 0.56600374294651845 27 331 30 292 34 264
12081 3.2126189988758242 0.46809132457062619 3.4124954697997167 50 42 31 1.2374160692963458 30 846 31 985 33 1116
11424 3.0880474017297166 1.0168438428375806 0.20540841991379008 153 153 149 1.625634311409317 27 168 30 332 29 293 31 258 34 603 33 530
12244 2.7339776140254943 -0.07589023986814665 2.7984136520049065 9 13 19 1.0551887126547528 27 223 31 393 29 275 30 357 34 391 33 420
11429 2.8317717700964056 1.5738628134215693 0.24266555922071459 109 111 110 0.63706072317875917 27 381 30 356 29 426 31 535 34 426 33 541
12252 4.3792159916142355 -0.065033840712466373 -8.166227886146789 106 125 127 1.2050338870491544 29 745 30 788 31 728 34 848
11437 2.9966916020745988 1.075114142311137 -0.36186332226675977 148 147 139 0.71696989684116597 27 286 30 450 29 625 31 514 34 609 33 523
11438 3.0731742292689868 0.98170092488910099 -0.028497916804559601 133 134 134 0.74604497357677457 27 372 30 452 29 369 31 516 34 425 33 526
12033 2.8025811637925893 0.11019233725379853 2.7688546342753706 112 132 81 1.7261851152798318 27 464 29 386 31 541 34 714 33 827
11440 3.0861522341826744 1.104542707951836 -1.6084044802131552 159 182 190 1.0421377479201928 27 289 30 527
12037 1.5455559517263953 0.10379318951481403 3.6273310135196217 162 137 117 1.4042721091095196 29 1160 30 860 34 1138
11444 3.0997034270666468 1.0139449053963971 -0.34707812119978071 99 101 100 0.66520926549462223 27 368 30 532 33 674
12602 1.7517889835967526 0.39080670888339136 2.2760648325604458 29 25 22 2.3229335958689483 29 2072 31 2839 34 3923 33 4628
11445 3.0617554728259755 0.97782137346922227 -0.10577742175921061 100 102 101 0.48688898967982458 27 371 30 533 29 623 31 515 34 607 33 678
12041 1.6400924917408146 1.4020065841379175 3.5294422165603945 116 105 97 0.80846676906038428 29 541 31 593 33 573 34 535
11448 2.9038968756853518 1.4253693648599113 0.084277286956726066 113 116 115 0.90519682503551691 27 377 30 541 29 609 31 527 34 595 33 537
12045 2.1818187565485712 0.30747340733818246 3.0362311324643336 142 127 122 1.9779559537177982 29 825 30 610 31 630 33 746
11452 1.689873650013991 -0.23432170874532993 3.2835582991317285 108 90 70 1.170632471145691 27 295 30 566 31 544 34 583 29 585 33 1036
12833 2.7481326859155746 0.33724680200437118 2.9009815153120906 62 71 70 2.71414139558635 29 2165 33 4848
12624 1.2444761976020799 0.43715439043941878 2.3183350548917367 246 239 230 0.36386199705043576 31 2343 34 4896 33 4678
11459 2.8477443649613257 1.4404149548025669 0.16005577045416627 87 89 88 0.32963797507003689 27 606 30 663 29 767 31 758 34 729 33 701
12117 2.7834126226457911 0.049624854381240917 2.6800355238439484 0 13 19 0.69500879630028101 29 778 31 1323 34 1465 33 1258
11460 2.8521102600186086 1.3863264124108843 -0.16456080503088616 145 144 142 0.5289691464156151 27 374 30 667 34 1046 33 983
12121 2.2027876665934913 0.16709419433396894 3.0212107933257624 191 145 122 1.1965528162859072 29 1476 31 1406 34 2806
11464 3.0885640754987107 1.0287824994282253 0.068234958561616127 30 33 38 0.26895874038872297 27 665 30 673 29 648 31 893 34 743 33 681
11466 3.2716870744169491 0.90679184794703604 0.05130691103227749 109 105 102 0.51306875224629633 27 681 30 678 29 1130 31 1029 34 1517 33 2202
11470 2.2239395683910912 0.34319474867907312 2.7990621991094229 153 125 100 0.93396314039849626 27 733 30 800 29 1820 34 2348
11474 2.0616398037882449 0.33438146541803127 2.9516468574725718 32 11 18 0.52741234269451842 27 645 30 823 29 822 31 810 34 1207 33 742
11475 2.3048190258556827 0.1722090949012357 3.2022434328076921 193 134 120 0.6643784835491563 27 445 30 824 29 950 31 812 34 672 33 1087
11476 2.0444029541122224 0.22853666809653125 3.2426843684349196 124 120 116 0.64574466425052202 27 660 30 833 29 830 31 816 34 662
12634 1.2486119353031275 0.47488140581677346 2.3686070296498194 255 243 219 0.34902528773759556 29 2107 31 3477 34 5006 33 3412
11477 1.4190922745813672 -0.051350455004973497 3.5881917441513318 195 161 143 1.0178401246782338 27 437 30 847 31 978 34 1134
11486 3.1083646703918606 0.94700652734710355 0.18829001898887343 144 144 145 1.2800631571903187 27 794 30 957 29 1133 31 1212 34 3781 33 2814
11488 3.0331725229088038 1.1123562955095601 0.01362227390499615 135 137 136 0.94188639229505566 27 936 30 960 29 875 31 1217 34 3317 33 2677
11490 2.9258182297984816 1.3563179310301201 0.086622085802705168 97 97 97 0.074163551137397865 27 615 34 1050
12656 1.7342095774798085 0.16413670182465406 2.9023900771847018 131 105 80 0.53377880476004147 31 3516 34 5098 33 4778
11491 2.8142920844705057 1.504837240925484 -0.0055047231047477517 60 62 64 0.7849785971641271 27 502 30 976 29 1163 31 1244 34 3849 33 4479
12149 1.9008365719409712 1.289146278527753 3.533150707712883 31 26 23 0.71133607446401081 29 2373 31 1713 34 2540
11492 2.7387056692768446 1.6216075050120748 -0.1518510294983027 99 96 91 1.336688984126267 27 475 30 979 29 1178 31 3320
11493 2.7333956303854747 1.6239811476601564 -0.039276710003105425 136 136 132 1.2630217092931348 27 547 30 981 29 1027 31 1556 34 4813 33 4529
11495 2.8095102356805799 0.16676200974163016 2.6488864276608526 150 178 118 1.7715065066404698 22 156 27 536 30 993 29 1763 31 773 34 1206 33 4627
12153 1.6800723174477039 1.359284040691193 3.4873565898897843 43 35 33 0.65920585043785629 29 2378 31 1721 34 2553 33 1911
11496 2.4126630550792942 0.37303960071517744 2.4282770051095133 67 88 81 0.93397187518719904 24 293 30 1000 29 917 34 1484 33 1271
12157 1.6218768880832033 1.3614533950055636 3.5606095451672832 69 58 56 1.2216625255236995 29 1966 31 1750 34 3097 33 5124
11500 2.7431615051631346 0.048997144515876473 3.2952950282731566 8 26 26 0.1689207939967548 24 177 31 804
11502 2.2198708901087549 0.2898769655639224 3.0426072431821098 94 53 54 1.1326781900597316 27 746 30 1037 33 1598
12097 9.0546038415659744 0.51630856390382418 -7.9892686006145279 44 43 39 0.23199656248677827 27 569 30 1139 31 1075
11504 1.8700322284205186 0.16705535407687663 3.4962242264572891 45 52 57 2.0875955676950695 27 1159 30 1057 29 835
12101 1.572393810992917 1.3399416934799353 3.4294887895403021 80 71 66 0.49491077818941626 29 1196 31 1150 34 1315 33 1391
11508 3.121883975247691 0.90053941783118807 0.034170724730203439 129 129 131 0.57709050609611467 27 680 30 1101 29 1128 31 1380 34 1520
12666 1.4997136464458662 -0.15532105261928206 3.5025751540496266 243 183 177 0.5854607859436689 31 1630 34 5177 29 1838 33 3069
11509 1.5639440992805231 -0.13430562089930032 3.5617730884739234 195 177 163 0.53350824976328104 27 655 30 1110
12105 1.1421122085153259 1.760336179296214 3.2068299624470531 50 52 54 0.80191224024295704 29 1000 31 1174 34 1348 33 1755
11512 3.2181998545390531 0.94278994339564659 0.077701857036867522 76 77 81 0.46559159843085629 27 929 30 1184 29 1702 31 2278 34 2194 33 2208
11514 2.0699294078613724 0.24717800886189739 3.1180846185452484 95 85 84 2.0511718509223096 27 1194 29 1844 31 2634
12109 1.7180163237423383 1.2737994041293419 3.4354972035782634 60 56 52 0.54929195787663709 29 989 31 1225 34 1304 33 1377
11516 3.0697894981198961 1.0928516524716008 0.014099654288723392 54 59 62 0.69301921807518019 27 934 30 1205 29 1270
11521 1.8888985446059763 0.085102281862672879 3.6416264684562272 45 48 41 0.32468012015309222 27 990 30 1238
11956 1.7722686224980477 0.81997987606750489 1.3888123886703188 127 129 128 0.42141902790748692 30 2403 29 2853 31 2307 34 3656 33 4562
11525 2.1621216560616268 1.5025610530258289 3.5832022089695816 23 21 22 2.0173827745922064 27 319 30 1276 29 1230
11960 8.9625040544484218 1.7054087837166119 -13.853150452575063 75 89 98 1.0325068705716698 27 1547 29 2872 34 3411
11529 2.9472032976722971 1.3590497763553719 -0.023686994099035481 90 91 95 1.2927968844380413 27 693 30 1305 29 1437 34 1486 33 1237
11964 2.835654636871245 0.12861101907983058 2.7195483454750105 8 26 5 1.8170357209187844 27 465 30 1990 29 2902 31 2325
11533 2.7101951895888945 1.5843101814103233 0.061882702272167411 21 24 29 0.96746989855551935 27 544 30 1321 29 902 31 917 34 1744 33 1603
12419 1.2607374823992439 0.56143040748251738 0.91817384795086632 144 61 77 2.2589143023058971 29 649 31 891 34 1508
11536 2.7020828942666042 0.22255038323863968 2.3141395238295233 59 81 78 0.46340429878255085 27 698 30 1331 29 1747 31 1560 34 3881 33 4550
11904 1.4625878652227873 0.43441097594356087 2.4511345809143554 171 145 120 0.55758544724843517 30 2025 29 2110 31 3481 34 5029
11537 3.0475939019307301 1.0043146431975154 0.017069016577007868 121 121 120 0.91893969126972119 27 930 30 1335 29 1275 31 1184 34 1509 34 3778 33 2417
11541 2.8503647330466682 1.6635154227257849 0.35428517149037198 82 82 82 0.11343985955209634 27 538 30 1501 31 1568
11912 2.1215037076132606 0.31849747215847524 2.8290585061703286 106 58 57 0.21732594847503833 30 2337 29 2158
11545 2.6929207378680231 0.52152479851950351 2.4056082807778165 14 31 38 0.19832541830769693 24 294 30 1546
11548 2.0338976962323612 0.2789070021653538 2.8406797546587974 71 21 20 0.88041567633919082 27 734 30 1573 29 1471 31 1615 34 2801
11916 1.9843509175562699 0.34842277171397706 2.8996434212116191 39 29 32 0.30992766423023843 30 2430 29 2175 34 5174 33 4870
11549 2.0186824566145209 0.28067875174273704 2.8366431783643198 181 127 120 0.43238225083872023 27 1041 30 1574 29 1470 34 1219 33 1289
11551 2.5947631063886867 -0.22987497775346713 2.8026261606712093 140 68 71 0.75824955384663895 22 411 30 1593 31 2148 33 2875
11552 2.545774212605608 0.38521890717020058 2.4032969923819789 44 64 63 2.1064620952422652 27 1223 30 1597 29 2078 34 2300
11856 1.3841004514801201 0.35092288577734582 2.5471789394819737 248 238 228 0.5066196266133639 30 3276 29 1793 31 2358
11553 2.7997289968577728 0.15698899237610364 2.7864774369630085 140 162 112 2.3311565463191659 24 428 27 531 30 1608 33 717 33 2966 29 2932
11562 3.0268561930375664 1.6527761783224073 -1.1783823132735451 205 200 194 1.5812000555856933 27 932 30 1949 29 2002
11564 3.0347079634241529 1.1659916812434949 0.041226941267846519 99 104 110 0.73335948368365023 27 1863 30 1954 29 2016 31 2122 34 4726 33 4423
11868 2.6941173498109308 0.039871429945269113 3.4028687345883073 10 26 23 1.3651803016623278 30 1036 29 1854 31 2638 34 5221 33 3100
11565 2.7355049372297606 1.5293529380960043 -0.017401738113137288 127 126 124 0.68424333712053809 27 696 30 1961 29 1167
11567 2.7896399812128205 1.6361376726235692 -0.053276686343364285 118 119 119 0.51606265571254606 30 1974 31 1998 34 3863 33 2906
12451 1.3145359443470144 0.50626621982766551 1.1946271123247278 117 1 32 1.0153062310064895 29 2011 31 2123 34 2212 33 4271
11568 2.1603338438491004 0.59938749961088955 1.9792161696332364 104 92 82 0.71516366220913563 27 1230 30 1989 29 2426 31 1572 34 3922 33 4620
11936 2.1027618735483946 0.22935047894841634 3.2462235453049244 161 153 150 0.51439124136444681 27 1298 29 2608 33 4946
11569 2.6427383124728259 0.32754561970532625 2.4386302672231461 41 61 60 0.31133266033851392 24 412 30 1991 34 2291
12469 1.1938114539445737 0.49082801441056439 2.4231818298943502 111 34 0 0.32603251824474616 29 1457 31 1397 34 2326 33 2321
11578 2.6993813626481304 0.42335793125631616 2.3938393141473369 7 25 29 1.5047892133400023 27 1224 30 2156 29 1776
11583 3.0913489247659425 -0.27350707101425764 2.8482203643782054 94 103 86 0.73752194951913741 27 1490 30 2366
12016 2.7714252990498922 -0.63915837466730963 2.6666122680692319 32 50 47 1.1809880799007804 29 298 30 326 31 251 34 421 33 265
11585 2.7272371373942277 0.21193614226062465 2.291335271731894 64 83 81 0.18866992386577588 27 1049 30 2392 29 3097
11589 2.1611451021958024 0.30979091339331305 3.1319818977367939 177 163 163 1.439657082682346 27 1786 30 2462 29 3094
11593 2.6851994445514924 0.10465885399616347 3.7068947361847524 82 82 70 1.1691126963310126 27 1751 29 2860 34 5282 33 3137
11595 1.47703934779236 0.060587076304702919 3.6654503487938181 226 182 166 1.4858150037290552 27 1156 30 2489 29 1161 30 1062 34 5281 33 1346
12028 7.9136631951684491 0.49779046351204315 -10.14573177323202 146 166 165 1.1845751711957788 27 249 30 304 31 366 34 444 33 365 33 1499
11597 2.7069606259827936 0.031351700263932074 3.4199356157135461 13 32 32 1.2238611992958948 24 433 30 2626 29 1858 34 2382 33 2356
12483 0.93837846628689603 1.9638330215071764 2.6832340002139237 30 29 34 0.40742586419748994 31 1682 34 2452 33 3182
11809 1.7438898470389683 0.79557987343078462 1.458368306559469 112 110 110 0.39698132259922492 29 1399 31 1361 34 1460 33 2273
11972 1.3638470890028032 0.37188595614173031 2.515441095132029 216 206 194 0.76584086701003429 30 3277 29 2964 31 3479 34 5015
11605 2.1056886233298968 0.09645884394856756 3.6401348992581775 129 115 101 0.15952018635585788 24 354 30 2999
11614 2.308776960683371 0.95120345787077987 1.3450750199168149 96 101 94 1.8846915211600381 27 1849 31 3566
11616 2.5556805446579416 -0.013249283706894622 3.9895870848670838 142 103 68 0.8016056185609296 27 1732 33 5143 34 5295
11920 2.2831174524918563 -1.3334868700512128 2.8590118418250419 32 58 69 1.283794655252497 27 242 29 2231
11617 2.0867643817663879 0.57616388034049615 2.04461052753155 23 14 9 1.1205018861865013 27 1638 30 3229 29 2895 31 3432
11619 1.5440225203880438 0.014622980236001672 3.8068048317743099 89 139 190 0.2902747787934245 27 1321 30 3354 31 2697
11924 2.0364538612293837 1.3308721069591696 3.4908962712717644 55 50 44 1.4646688291134142 30 1684 29 2367 34 1321
11621 2.0938289487769404 0.27624446803133562 3.0880503419816052 161 151 149 0.30780701324464937 27 1807 30 3385 34 5217
11928 1.8829934249904492 -0.070475473397733274 4.1581540814808973 133 94 61 0.2415638106817565 30 2650 29 2456 34 5309
11625 1.4159540773799721 -0.15578324601832477 3.550511347922336 174 158 143 1.0665747339686615 27 149 30 167 29 227 31 233 34 195 33 305
11626 2.6604979215693727 -0.044104566753693224 2.7442374119651354 24 29 27 1.0326631392437193 22 72 27 278 31 394 34 392 33 564
11932 1.8540338141605572 0.95334491790461484 0.89932553858336406 168 158 146 1.3376121645744932 30 3467 29 2535 34 4772 33 2885
11629 2.7167410016927636 0.047733178967522674 3.3532478287547782 15 30 35 1.9564074914966523 27 454 29 948 34 1123 33 1312
11630 2.1458116268791918 0.32756303964724043 3.0894236049156452 59 49 48 2.407600335561864 24 436 30 1201
11631 3.2623833869849417 -0.18742755732498778 2.9884637096216435 173 137 104 1.2516147271822036 30 1332 31 1362 33 2922
12000 1.4319497822790039 1.3452125199851452 3.5133120146895793 66 56 47 1.2377669892553689 29 88 31 86 33 133
11633 1.8363782867207772 0.0047801329742431405 3.6880993047219688 65 66 70 1.9847668831045273 27 1318 30 2483
11634 3.1676565893054915 -0.21955453903271566 2.8824604587145011 99 104 82 0.68056632516064086 27 483 31 762
12004 2.1494252855193308 0.70492886680970968 1.9268600487477268 35 29 29 0.79772863377212599 30 98 31 124 33 110
11637 2.6945705674676348 -0.52634240272153798 2.4498310774235197 175 136 103 2.2455317880218653 30 24 29 24 31 39 34 27
12008 3.141674920529745 0.44779689376805459 3.4159966666679025 87 75 59 1.0699593491173318 30 130 31 138
11641 8.6629923391612103 1.6735788737180812 -13.874370911877891 53 67 78 1.7742778397097794 27 56 30 53 29 67 34 60 33 51
11642 7.9711212571313279 1.0800602466416049 -10.586866924770719 57 71 82 0.92769753635671359 27 57 30 45 29 76 31 59 34 61 33 64
12012 3.0870297821998793 -0.27359317426758489 2.9630678460634479 73 91 79 1.2631170652184356 30 262 31 225 34 276 33 279
11793 1.7345112994725027 1.3769380996756562 3.4914737794158643 46 42 39 0.83743577034673655 30 1073 29 1209 31 1166 34 1342
11648 1.9477914698385657 1.0661785422303485 0.8196969463914161 217 199 175 1.0026999108841668 30 92 29 139 31 119 34 121 33 172
12304 2.5436934006633938 -0.35661895072836752 2.6450495007389052 19 25 39 1.7042617969630935 29 261 34 285 33 408
11651 1.7017556043293698 -0.19261390317782195 3.1543854098886679 217 186 154 0.71338364690990785 27 151 29 160
11797 3.3856753984939671 0.98077300620996521 0.086952745351383073 168 155 143 0.23228751822751034 30 1190 29 1274 31 1209
11652 1.5622281035889118 0.74282764099529619 1.9286553032998892 218 189 154 1.2934021178987245 30 158 29 161 31 177 34 186 33 180
11801 1.9127816649374711 0.11985701009377001 3.3330822355826366 121 117 114 2.2438468555439606 30 1221 29 1316 31 1653
11805 8.9859036084546364 2.0555316083883288 -14.723535262864413 66 84 94 0.71540996939168311 27 813 30 1140 29 1376
11660 2.1039936138513382 0.22994597405768213 3.289081367707976 155 141 132 1.169880546557454 30 192 29 224 31 287 34 348 33 303
12831 1.2055631962400377 0.48666350443757206 2.4617610831709555 163 113 62 2.0266086949574773 29 3010 31 3519 33 4786
11662 1.6291125365813917 0.443628668076266 2.2000927325631521 218 196 172 1.2812598575450038 30 157 29 238 31 246 34 626 33 543
11873 1.8691425455270259 0.07030364064861859 3.3723009211209072 144 143 138 2.0154523692962014 29 1866 31 2569 34 2850 33 2366
11664 2.8908671712988565 -0.54463406716829588 2.8374036024570812 67 87 79 1.0541154315614465 30 679 29 249
11667 1.6750839333231076 0.30155045070094272 2.6892808699140156 206 177 137 0.9204294810012863 30 198 29 270 31 405
11877 1.8678068063741071 0.081048464727745129 3.4319301395200372 147 151 154 0.72498238452096864 30 1630 29 1874 31 2663
11668 1.6063934957444526 0.62256041735182177 1.9789425796486693 33 25 23 0.82839250584676571 30 273 29 272 31 401 34 398 33 427
12314 1.2388744557998608 0.52685953724749379 2.4447679474546629 181 138 95 1.3838255525491543 29 269 31 406 34 401 33 431 34 2786
11669 1.9890947937251682 0.68078826246504487 1.8697741962952559 57 48 46 0.8634160720749845 30 270 29 273 31 275 34 268 33 321
11672 1.6541617257401315 1.0832235164495723 0.47977665734655495 166 3 50 1.0209337170996935 30 205 29 285 31 262 34 384
11885 1.6724020437284279 1.3910895630404352 3.4992758102631512 46 38 35 0.62201397952722992 30 2554 29 1951 31 2506 34 3067 33 5114
11676 7.9461485264153726 0.11138127166645924 -8.8616949539452374 78 78 78 1.2756279195580267 27 212 29 328 30 299 31 315 34 316 33 337
11678 2.0501860030106891 0.29378699153665988 2.8902798411643564 182 119 110 0.57242778292804752 30 277 29 332 34 405 33 434
11825 8.0192101045896216 1.4148760832193017 -12.960477880044147 105 118 128 0.51194686024716662 27 857 31 1810
11680 7.5293953155753846 0.23246574771342693 -8.9134185835525308 91 99 98 1.4316809844400733 27 209 29 335 30 302 31 316 34 314 33 363
11685 2.2432583246774018 0.32441668001867668 3.0576607288031372 112 100 98 1.6229000307496393 30 358 29 400 31 560 34 561 33 560
11837 2.8175749175997127 1.5339617275140209 -0.080601362619431016 103 105 102 0.54794368891039269 30 1959 29 1734 31 2190
11777 2.6372118263452666 -0.54265554087196699 2.6299320397704369 82 103 90 0.25482472145946294 27 924 31 2558 34 4637
11696 2.6969507228585279 0.00031656859077021447 3.4439933190128009 11 30 27 0.51893227693232935 30 438 29 561 34 562 33 558 31 559
11781 1.9976800706559237 0.17537576667485794 3.3169908002649802 128 118 116 2.3600167496316642 30 1051 29 1143 34 2400 31 1659
12346 1.1468741901746813 0.47587718871956225 2.4196689330275998 107 23 3 0.48170479713043962 29 803 31 791 34 697 33 1049
11701 2.6542111947656704 0.26263564475250295 2.4081840950439299 60 79 75 0.73163197171020189 27 382 29 593 31 633 34 622 33 709
11702 2.9016046773117679 1.6397895593510499 0.36651019236417981 52 58 59 1.1211002493585842 27 383 29 594 34 3912 31 3407 33 4610
11785 1.835204486381361 0.095975425415586055 3.6167043932380532 59 49 40 0.56219671373815649 30 856 29 1159 33 1621
11704 2.689859873605652 0.19305284771160139 2.4135169852098168 26 46 41 0.53496089654253964 30 644 29 596 31 766 34 721 33 707
11789 1.9841999952645877 1.2805603290579675 3.5207915055739392 21 18 13 0.75132406193843049 30 1254 29 1195 31 1001 34 1167
11708 1.8739920323291808 1.0932430878810997 0.7326125943726115 105 87 66 0.90918636030101874 30 353 29 602 31 532 34 591 33 538
12368 1.3926355347441024 1.1526936498135896 0.89528812474397856 200 171 146 0.47340062980857089 29 378 31 537 34 1063 33 1253
11715 7.6277216892341828 1.8252645487187267 -14.505117945182635 166 206 205 1.0490866487195039 27 395 30 465 29 635 31 1071
11861 1.325691760528102 0.38316362448611929 2.5991644651894266 172 116 67 0.55999543720495293 30 2036 29 1812 31 2376 34 5097 33 3011
11716 2.8967195400826635 1.301059870001964 -0.24457173848578626 144 141 134 0.90614397624429843 30 670 29 645 34 1471 33 1224
11726 2.5802528881411093 -0.23724180123270397 2.7894674930972707 185 105 104 0.57209374127021151 30 543 29 764 27 486 31 755 34 737 33 695
11731 1.4112883680512209 0.42983074409907335 2.5549115733478027 173 146 117 0.36744734702004123 30 807 29 806 31 797
11732 1.972500913574837 0.30278315168617409 2.8728033733199596 114 65 60 0.83336561892839922 30 815 29 812 33 1067
12378 1.3654933277120804 0.56860825262686776 2.469538764322746 180 142 105 0.67162092917197236 31 1407 34 1106
11733 1.7410442326519082 0.42053672329894637 2.7411440694488101 217 196 167 0.54250636288447507 30 575 29 814 31 801 34 685 33 732
11737 2.2868609660599537 0.31048991041735491 3.1134863324477093 120 109 103 2.0035095785434542 30 829 29 829 31 972 34 1252 29 1158 33 1327
11738 1.6629474743598014 0.045354579538126591 3.4929697569763758 155 125 97 1.2267836256777576 30 841 29 832 34 1427
11742 1.6907153748705135 1.4115634504539973 3.5084225173947057 102 92 90 0.77935454137759741 30 873 29 867 31 860
11889 3.2312672024785991 0.93821881110106542 0.047159594745811835 54 53 52 0.484665266066863 27 1077 29 1996 31 2559 34 3768 33 3833
11744 2.8829757155037501 1.2900835378587352 -0.11990152828523513 108 107 103 1.1789889548115324 30 964 29 881 34 3815 33 5226
12400 1.4349215058915832 0.47865706171437772 2.479286411811024 182 153 128 0.2201205898122871 29 1459 34 1294
11747 1.6771604280253911 0.99345582508866181 0.6394534369069389 164 142 138 1.0690539948068372 30 972 29 888 33 4449
11893 2.3025969072808508 0.21097348058251097 3.2351684537031806 120 101 97 0.94209203886773996 30 2457 29 2036 34 5232 33 1597
11748 2.8658157661915586 1.4401639771546531 -0.00018505651192233553 143 143 140 1.5456368786089363 30 974 29 889 34 3843 33 4466
11749 2.803911665685936 1.5140808984198881 -0.08186156562258011 96 96 94 0.61309893563025153 30 1308 29 892 34 2248
11750 2.034493030989748 1.0702551898712853 0.78314098513402131 96 92 83 1.0683651787806088 30 3142 29 897 31 3342 34 4798
11897 2.9343399751177723 1.73221952248593 0.19731281757040586 100 102 100 1.4869636015548195 30 987 29 2062 31 1366 31 3406 34 3911 33 4607
11752 2.7908965058386195 1.6327928674680845 0.063043144556799158 54 60 58 1.496357818806155 30 982 29 904 31 764 34 3320 33 3894
11901 2.1645259550219755 -0.043881715477457457 4.0912363884956964 123 83 57 0.59448841011633413 30 2501 29 2091 34 5306
11756 2.3026788168613912 0.41224865309569714 2.3963922406216782 218 193 156 1.8397244947339211 30 627 29 919 31 777 34 711 34 2304 33 1037
11758 1.3457226201831551 0.39112535726137126 2.6106013866477147 184 130 83 0.34770267325601761 30 810 29 931 33 1060
11841 2.1415249395328328 0.96300818379717823 1.1260438533082222 44 34 24 0.75834097064084971 30 1977 29 1744 31 2303 34 3873
11760 1.351266839376138 0.42560900603695034 2.6097240310843026 180 135 86 0.38464515244699748 30 812 29 933 34 1102 33 1063
11845 2.8084611323273423 1.9611811276762983 -0.14775017116409311 81 89 91 0.93577688001735559 30 2409 29 1752 31 3405 34 3910
11764 1.7500130231727611 0.43036166655429359 2.7689247888160535 140 118 94 0.53075479801560299 30 1033 29 944 31 1419 34 1238 33 2338
12410 2.1455411913757132 1.2892111987511143 3.4513639490839472 22 19 10 0.30061704426843344 31 1464 34 1457 33 1006
11765 2.6336398509543146 -0.014624125896245316 3.4916368407857323 71 92 85 1.4081652852908397 30 1043 29 961 31 971 34 2849 33 4105
11849 1.5928388399387639 0.64633866650376359 1.9183003258742941 30 26 25 0.57321314035312665 30 1997 29 1762 31 1576 34 2287 33 2285
11768 1.6613903465726649 0.046627512639284649 3.5940346701450196 77 121 167 0.42089051793977916 30 1060 29 974 31 981 34 1135 33 1101
11853 2.389954514994348 0.36532310333646484 2.5152168044098873 49 68 64 0.54251597633545035 30 2012 29 1784 34 5345 33 2299
11772 2.1204127081167528 0.22441880850275453 3.2444504639422793 43 33 31 0.53642440303461414 30 1215 29 1033 31 1430 33 1335 34 5240
11792 1.9792938106090447 1.3077070834873483 3.5282266075651552 37 33 30 0.80180157704161836 30 1260 29 1201 31 1039 34 2539
12686 2.0046185433352437 0.306660868699697 2.9710654005546826 78 62 65 0.041773646621603842 31 2611 34 5495 33 4884
11807 7.6180462591946245 1.7167106306766107 -14.38382288615947 38 59 66 0.97387530140536149 27 795 30 1312 29 1378 34 918
11808 2.6152527217991808 -0.13504220894761607 2.7782422238941193 107 57 52 0.61608881978450647 30 1327 29 1391 31 1473 34 2263 33 2263
11818 3.1339030567011466 0.81419253014114323 -0.025826094944408788 154 153 149 0.55911013028152756 30 1338 29 1465 34 1530 33 1207
11823 2.5218995762201728 0.40662410071539751 2.3423899519477187 53 74 69 1.0795334413671209 24 264 29 1508 31 2330 34 2292 27 1839 33 3418
11824 2.3433151274604094 0.1692891918336373 3.3198485909874855 40 55 52 0.42539509146801363 30 1209 29 1511 34 1260 33 1567
11834 3.1093806415786811 0.67268836816309563 0.18585018287540622 164 158 154 1.0248339749534743 30 1341 31 1512
11863 1.3675579401102071 0.40611248871967054 2.6201273907108273 132 86 41 0.56793463549530143 30 2274 29 1818 31 2381 34 5118 33 4808
11866 2.3755360337363407 0.15407222705125015 3.1572411072191229 64 60 51 1.1031904133723898 30 3350 29 1832 31 1034 34 2363 33 3068
11872 2.233852030076902 0.30456531172963169 3.1354423316960225 119 104 101 1.1440094990564831 30 2076 29 1865 34 2388
11886 1.6341176028808551 1.4184003205549349 3.5060377734728361 79 70 65 1.0307192566351007 30 1705 29 1960 31 1741 34 2586 33 3276
11887 3.3204291564360902 0.86629655145183559 -0.084829795853958861 157 141 129 0.82091777656940579 30 1315 29 1988 31 1516 34 1529 33 2751
11888 3.3689910379518766 0.92282986490419472 -0.13578718633950285 161 144 129 0.7306484581048639 30 1940 29 1990 31 3231
11898 1.6294549135857193 0.57598906436443986 1.9828537756402003 219 210 204 0.60724403632534618 30 1992 29 2068 31 3422 34 4883 33 5227
11903 1.8290181588206138 0.17931086020091197 3.2857386080827968 92 72 47 1.2443735227116111 30 2465 29 2100 33 4120
11907 1.4212109659291245 0.43529665260053413 2.5335448892873726 149 122 95 1.2391021517650298 30 2776 29 2135 31 3607 34 5096
11910 1.3926271742592335 0.43734561006071693 2.5771803844216383 176 147 117 0.48424201750753193 30 2289 29 2143 31 2379 33 3030
11913 2.0325981823217121 0.30411284970900959 2.8519884444003942 70 39 37 2.0120724329304784 30 3334 29 2159 34 5459
12575 1.0375451469713708 1.6040760130006719 3.5284935680504059 20 21 25 0.37164918344490777 29 2404 34 3200 33 3348
11918 2.0069157596932969 0.30624219852618811 2.9982374350442407 27 17 19 0.72522224889745734 30 2441 29 2190 31 2410 34 5196 33 2344
11922 2.7136884341948684 -0.5407319835487393 2.5632445707604643 104 113 96 0.62581910679452413 30 3080 29 2345 34 3735
11923 1.4048482106569125 -0.18201987135929559 4.3362866150080528 127 87 64 0.84816128444640804 27 1883 34 5334 33 5039
11925 2.0727088450507631 0.94638824301658575 1.0849281575743328 234 220 200 1.5673895094462678 30 3150 29 2423 31 3356 33 4538 34 4817
11927 1.9300484007350371 -0.076460338582057447 4.1568227367827886 108 73 51 1.9124989866865778 30 3403 29 2454 33 5027
11933 1.3559788029796351 0.3953572864854798 2.4327380072291929 114 96 75 0.24696826078535739 30 2021 29 2537 33 4696
11934 7.2728095260697359 1.5625415933161564 -13.298224016601026 149 172 178 1.3050422210192276 27 1541 30 2807 29 2572 33 4018
11935 1.6618522272239813 1.4935564436357343 3.5703007512025811 23 14 5 1.3318396729554993 30 1290 34 4957
11939 2.2044724930709751 0.21502554372420826 3.3249160245240885 125 105 94 0.091303027422601601 30 2926 29 2614
11946 3.2581596061683604 0.81879288440589837 -0.10258659491998137 122 112 100 1.5866319410775238 27 1486 29 2778 34 4894 33 3726
11950 2.5923150416483547 -0.45638335618215825 2.900187858520948 111 83 82 1.9910880105995579 30 2344 29 2807 31 1535
11953 3.0387230077299545 -0.30617547874445356 2.8506605674180685 107 104 85 1.6186046585527281 30 3117 29 2820 31 3293
11954 2.125858098552583 0.97896564494251392 1.0917618343993087 216 204 189 0.56335110554528645 30 2610 29 2846 34 4831 33 2913
11957 2.4219977038641014 1.324416294932226 0.7775665196248458 117 114 102 2.6432468067166175 30 3180 33 4604
11959 1.5981256988796222 0.03732245949623219 2.631449533002113 106 95 82 2.5771317121153765 30 3423 29 2869 31 3562
11970 2.3000089221642073 0.41994416000954904 2.4341398025222456 75 88 76 1.7701468821770014 30 3258 29 2942 31 3465
12321 1.6370996851271737 1.3914144496554139 3.3447015458721285 77 71 63 0.35266706854639246 31 583 34 534 33 774
11971 2.7579665998027041 0.51594886317064925 2.3969147064763816 93 105 106 1.6147142554235536 24 784 34 5043
11978 2.3629436785527713 0.13975682497723688 3.1312796690974034 114 100 89 0.89600029934333014 30 3345 29 3037 33 4849
12639 1.3492755502429403 0.40127978735812814 2.5140297369638214 126 109 101 0.32475720026401428 31 3493 34 5047 33 4740
11982 9.4850795987406382 4.3271706126657312 -15.451034620483799 65 75 85 1.1975417387770309 27 72 30 72 29 80 31 63 34 45
12002 1.5294094452188822 1.4099465535774316 3.619058000117914 15 21 22 1.5717778073789024 29 124 31 118 34 90 33 139
12005 2.7769166943403953 0.13356352851455194 2.7746414621850772 30 41 9 1.0877677058001933 29 104 31 125 34 115 33 108
12671 1.2123690664721303 0.40037199460324263 2.4108101631585881 92 78 69 0.51722679275772965 29 2943 31 3466 34 5219 33 4688
12014 3.100716840619167 0.35916189302115814 3.3994715892878311 15 21 21 1.3914553319975307 30 168 31 239 34 212 33 204
12021 2.7198176800628202 -0.0091917789386537288 3.3219519698307347 12 26 26 0.28170198879627339 29 212 31 281
12023 1.6461675241305893 0.026817367409223206 3.5161006055224284 155 126 96 1.6704995647966834 27 653 29 223 31 288 33 439
12034 2.7927203512142502 0.21403186877317737 2.8148684127818888 120 137 83 1.0187384579079251 29 391 30 369 31 548 27 461 34 577 34 843
12035 2.6128579010905719 -0.034570137880579006 3.5016478440684788 13 27 27 1.1974841202268371 29 827 31 562 34 666 33 559
12036 2.4355961964109629 0.064329579803187945 3.3804916051055405 65 82 74 0.71231095086420149 29 560 31 563 34 665 33 749
12048 9.0821379774673172 0.38622707401429762 -8.08721931475867 63 65 64 0.82836055081809956 27 399 30 1131 31 719
12054 2.7023593635161585 0.30734847514102004 2.9648826242946233 89 94 90 1.9202140820279361 29 943 31 802 34 680
12058 1.677166437614344 0.056130465196385412 3.469866640329017 150 124 96 1.8060720676963118 27 312 29 831 31 819 34 1263 33 1098
12060 1.7476473098221494 1.1336139445619924 3.6509859999003149 62 54 51 0.90614084810910756 31 855 34 1332 33 3432
12430 1.3098994104891406 0.38460261272776486 2.5572885134857977 180 138 80 0.40687150199846611 29 1455 31 1396 34 1634
12063 1.6304989320225713 1.3665299937333109 3.5743801747769424 54 43 39 0.5627869363834902 29 759 30 601 31 861 34 1357 33 1412
12064 1.4418366118975086 1.685737968566714 3.3757712071298105 23 24 21 0.83811262461671709 29 1004 31 863 34 859 33 572
12074 2.7328783592650017 0.30758424674784146 2.9196122691253819 61 67 67 1.5147838125342394 29 938 31 958 34 1113
